257.76 -100.01 110.501
257.76 -100.01 110.547
257.75 -100.02 110.592
257.76 -100 110.669
257.73 -99.99 110.716
257.7 -99.78 111.134
257.75 -100.01 110.762
257.75 -99.99 110.84
257.76 -100.02 110.806
257.76 -99.97 110.917
257.7 -99.81 111.149
257.75 -99.99 110.885
257.76 -100 110.931
257.76 -99.98 111.01
257.75 -100 110.978
257.81 -99.99 111.087
257.66 -99.82 111.212
257.65 -99.84 111.181
257.75 -100 111.025
257.71 -99.92 111.142
257.66 -99.83 111.261
257.63 -99.83 111.231
257.75 -100 111.073
257.66 -99.83 111.31
257.65 -99.84 111.278
257.66 -99.74 111.511
257.66 -99.83 111.361
257.65 -99.85 111.329
257.69 -99.97 111.176
257.68 -99.84 111.41
257.71 -100.01 111.142
257.64 -99.84 111.381
257.68 -99.84 111.462
257.66 -99.86 111.43
257.66 -99.83 111.514
257.65 -99.85 111.481
257.68 -99.85 111.611
257.64 -99.84 111.583
257.67 -99.83 111.667
257.69 -99.94 111.511
257.66 -99.86 111.635
257.67 -99.75 111.875
257.66 -99.83 111.721
257.64 -99.83 111.69
257.65 -99.82 111.777
257.67 -99.86 111.739
257.67 -99.86 111.793
257.69 -100.01 111.517
257.66 -99.82 111.883
257.66 -99.84 111.85
257.67 -99.87 111.876
257.68 -99.84 111.968
257.73 -99.73 112.302
257.28 -95.49 112.067
257.68 -99.92 111.875
257.67 -99.85 112.001
257.69 -99.74 112.248
257.68 -99.85 112.063
257.75 -99.79 112.301
257.68 -99.87 112.031
257.68 -99.95 111.877
257.71 -99.79 112.249
257.67 -99.85 112.098
257.66 -99.86 112.07
257.82 -99.88 112.296
257.68 -99.98 111.884
257.68 -99.86 112.135
257.7 -99.81 112.259
257.66 -99.86 112.11
257.72 -99.85 112.226
257.67 -99.83 112.206
257.67 -99.85 112.175
257.72 -99.83 112.294
257.7 -100.02 111.889
257.65 -99.85 112.15
257.69 -99.85 112.239
257.66 -99.86 112.185
257.75 -99.88 112.297
257.83 -99.97 112.295
257.7 -99.87 112.288
257.7 -99.9 112.23
257.77 -99.77 112.608
257.72 -99.9 112.293
257.73 -99.74 112.624
257.82 -99.85 112.573
257.75 -99.92 112.295
257.72 -99.93 112.238
257.72 -99.73 112.636
257.79 -99.82 112.589
257.75 -99.93 112.301
257.28 -95.49 112.285
257.71 -99.91 112.276
257.72 -99.93 112.242
257.77 -99.79 112.597
257.76 -99.94 112.298
257.71 -99.92 112.241
257.78 -99.8 112.595
257.77 -99.95 112.296
257.71 -99.92 112.243
257.77 -99.78 112.601
257.77 -99.94 112.3
257.28 -95.51 112.11
257.76 -99.76 112.609
257.78 -99.94 112.299
257.72 -99.88 112.28
257.68 -99.88 112.189
257.81 -99.96 112.297
257.71 -99.85 112.285
257.84 -99.97 112.295
257.68 -100.02 111.886
257.66 -99.85 112.161
257.67 -99.83 112.186
257.83 -99.94 112.293
257.69 -100.01 111.878
257.68 -99.85 112.149
257.67 -99.85 112.115
257.68 -99.9 111.881
257.67 -99.83 111.982
257.67 -99.84 111.944
257.67 -100 111.598
257.68 -99.86 111.869
257.69 -100 111.51
257.68 -99.84 111.748
257.65 -99.73 111.892
257.66 -99.83 111.714
257.67 -99.84 111.678
257.66 -99.84 111.643
257.65 -99.84 111.534
257.66 -99.8 111.524
257.7 -100.01 111.174
257.66 -99.73 111.515
257.68 -99.85 111.337
257.71 -99.97 111.161
257.68 -99.84 111.3
257.72 -99.99 111.121
257.67 -99.84 111.263
257.67 -99.84 111.224
257.71 -99.9 111.147
257.76 -99.99 110.87
257.75 -99.99 110.833
257.76 -99.99 110.795
257.76 -100 110.757
257.75 -99.99 110.681
257.76 -100.01 110.643
257.75 -100.01 110.604
257.75 -100.01 110.567
257.76 -100.01 110.531
257.76 -100.02 110.495
257.76 -99.99 109.865
257.76 -100 109.832
257.76 -100 109.796
257.75 -99.99 109.721
257.74 -99.98 109.684
257.72 -99.95 109.645
257.7 -99.84 109.633
257.66 -99.78 109.59
257.7 -100.02 109.282
257.69 -100.02 109.202
257.68 -100.02 108.856
257.67 -100.01 108.815
257.25 -95.5 112.028
257.28 -95.37 112.281
257.28 -95.48 112.049
257.25 -95.51 111.941
257.28 -95.49 111.961
257.27 -95.49 111.877
257.28 -95.5 111.79
257.26 -95.24 112.281
257.28 -95.46 111.818
257.28 -95.51 111.706
257.23 -95.49 111.628
257.25 -95.51 111.542
257.27 -95.48 111.568
257.27 -95.49 111.484
257.28 -95.5 111.401
257.28 -95.51 111.32
257.27 -95.46 111.348
257.25 -95.5 111.24
257.69 -99.42 107.872
257.69 -99.46 107.844
257.7 -99.5 107.817
257.72 -99.58 107.837
257.71 -99.61 107.809
257.64 -99.43 108.232
257.73 -99.69 107.829
257.66 -99.5 108.255
257.68 -99.5 108.331
257.67 -99.58 108.204
257.68 -99.54 108.304
257.67 -99.53 108.376
257.64 -99.55 108.342
257.68 -99.65 108.223
257.69 -99.69 108.198
257.67 -99.5 108.591
257.67 -99.49 108.663
257.63 -99.54 108.601
257.66 -99.51 108.706
257.67 -99.51 108.781
257.66 -99.54 108.754
257.66 -99.53 108.827
257.63 -99.54 108.87
257.67 -99.52 108.976
257.66 -99.55 108.948
257.66 -99.5 109.049
257.66 -99.54 109.021
257.64 -99.48 109.121
257.62 -99.54 109.065
257.63 -99.53 109.14
257.67 -99.47 109.348
257.65 -99.54 109.217
257.68 -99.46 109.424
257.66 -99.44 109.499
257.61 -99.54 109.263
257.67 -99.48 109.474
257.64 -99.54 109.342
257.67 -99.47 109.55
257.66 -99.54 109.421
257.66 -99.53 109.497
257.62 -99.54 109.467
257.67 -99.52 109.574
257.64 -99.54 109.545
257.66 -99.54 109.623
257.67 -99.64 109.622
257.69 -99.71 109.648
257.71 -99.45 111.195
257.72 -99.5 111.22
257.73 -99.52 111.271
257.74 -99.55 111.24
257.72 -99.52 111.324
257.74 -99.56 111.291
257.74 -99.54 111.374
257.72 -99.5 111.46
257.72 -99.53 111.427
257.64 -99.61 111.176
257.74 -99.52 111.509
257.68 -99.67 111.14
257.67 -99.6 111.255
257.63 -99.6 111.224
257.67 -99.58 111.336
257.73 -99.52 111.56
257.67 -99.61 111.303
257.66 -99.69 111.155
257.71 -99.51 111.611
257.64 -99.6 111.352
257.74 -99.54 111.655
257.66 -99.72 111.17
257.64 -99.6 111.402
257.73 -99.56 111.625
257.74 -99.54 111.707
257.65 -99.61 111.45
257.72 -99.55 111.675
257.74 -99.51 111.792
257.73 -99.54 111.759
257.64 -99.61 111.501
257.73 -99.51 111.843
257.64 -99.6 111.551
257.71 -99.5 111.895
257.66 -99.65 111.514
257.65 -99.61 111.599
257.73 -99.51 111.943
257.62 -99.6 111.653
257.73 -99.51 111.996
257.62 -99.59 111.704
257.72 -99.51 112.049
257.73 -99.54 112.013
257.64 -99.61 111.753
257.74 -99.53 112.098
257.66 -99.6 111.837
257.73 -99.55 112.066
257.7 -99.46 112.193
257.64 -99.61 111.806
257.73 -99.51 112.155
257.74 -99.55 112.119
257.63 -99.6 111.861
257.67 -99.61 111.942
257.78 -99.53 112.289
257.64 -99.61 111.912
257.66 -99.45 112.277
257.65 -99.65 111.874
257.64 -99.61 111.963
257.64 -99.67 111.893
257.62 -99.59 112.018
257.65 -99.5 112.261
257.64 -99.61 112.069
257.79 -99.62 112.288
257.66 -99.59 112.155
257.65 -99.61 112.124
257.63 -99.59 112.184
257.66 -99.61 112.234
257.76 -99.67 112.306
257.67 -99.64 112.253
257.76 -99.72 112.296
257.67 -99.66 112.281
257.69 -99.7 112.246
257.68 -99.67 112.668
257.63 -99.62 112.686
257.62 -99.61 112.696
257.69 -99.69 112.649
257.62 -99.6 112.698
257.67 -99.67 112.651
257.67 -99.66 112.655
257.67 -99.65 112.663
257.67 -99.63 112.666
257.69 -99.7 112.257
257.74 -99.7 112.311
257.68 -99.65 112.247
257.62 -99.59 112.183
257.73 -99.59 112.3
257.67 -99.6 112.134
257.67 -99.61 112.098
257.62 -99.47 112.25
257.66 -99.68 111.885
257.66 -99.6 112.026
257.65 -99.6 111.991
257.64 -99.59 111.919
257.65 -99.61 111.881
257.62 -99.57 111.849
257.7 -99.51 112.121
257.63 -99.59 111.808
257.71 -99.53 112.082
257.62 -99.59 111.772
257.7 -99.45 112.19
257.61 -99.58 111.736
257.72 -99.49 111.998
257.68 -99.6 111.643
257.73 -99.51 111.921
257.73 -99.51 111.883
257.67 -99.6 111.567
257.73 -99.51 111.845
257.73 -99.51 111.806
257.67 -99.61 111.488
257.74 -99.54 111.765
257.74 -99.53 111.725
257.66 -99.6 111.293
257.74 -99.54 111.569
257.66 -99.6 111.255
257.73 -99.54 111.531
257.65 -99.6 111.217
257.73 -99.53 111.493
257.65 -99.6 111.178
257.73 -99.54 111.454
257.73 -99.53 111.417
257.74 -99.55 111.376
257.6 -99.44 111.207
257.73 -99.54 111.338
257.73 -99.54 111.3
257.73 -99.54 111.225
257.72 -99.72 110.797
257.72 -99.45 111.186
257.68 -99.61 109.632
257.63 -99.53 109.59
257.63 -99.54 109.515
257.62 -99.53 109.477
257.62 -99.53 109.436
257.63 -99.54 109.397
257.62 -99.53 109.358
257.62 -99.53 109.32
257.65 -99.57 109.288
257.62 -99.53 109.249
257.62 -99.53 109.215
257.62 -99.53 109.182
257.62 -99.53 109.148
257.63 -99.54 109.111
257.63 -99.54 109.073
257.63 -99.54 109.035
257.66 -99.49 109.181
257.63 -99.53 108.997
257.66 -99.49 109.143
257.63 -99.53 108.96
257.67 -99.49 109.107
257.65 -99.57 108.928
257.67 -99.5 109.072
257.63 -99.53 108.888
257.67 -99.5 109.037
257.63 -99.53 108.852
257.67 -99.5 109
257.63 -99.54 108.814
257.63 -99.53 108.772
257.66 -99.47 108.917
257.67 -99.49 108.876
257.66 -99.48 108.829
257.67 -99.49 108.783
257.27 -95.51 108.526
257.26 -95.5 108.455
257.26 -95.5 108.385
257.26 -95.49 108.248
257.28 -95.49 108.182
257.28 -95.44 108.144
257.28 -95.39 108.033
257.26 -95.33 107.989
257.26 -95.28 108.018
257.27 -95.23 107.98
257.67 -99.13 107.821
257.67 -99.16 107.858
257.67 -99.2 107.831
257.69 -99.25 107.805
257.68 -99.28 107.845
257.7 -99.33 107.822
257.69 -99.39 107.83
257.63 -99.18 108.211
257.64 -99.25 108.227
257.65 -99.3 108.201
257.61 -99.23 108.293
257.64 -99.36 108.215
257.66 -99.41 108.193
257.61 -99.2 108.58
257.62 -99.24 108.555
257.61 -99.24 108.82
257.62 -99.41 108.566
257.6 -99.23 109.085
257.6 -99.22 109.159
257.62 -99.19 109.263
257.61 -99.36 108.928
257.63 -99.23 109.235
257.66 -99.3 109.334
257.63 -99.24 109.433
257.66 -99.2 109.613
257.65 -99.23 109.586
257.65 -99.41 109.251
257.66 -99.4 109.326
257.65 -99.29 109.606
257.64 -99.32 109.577
257.66 -99.35 109.628
257.64 -99.41 109.574
257.64 -99.17 111.206
257.66 -99.21 111.177
257.66 -99.26 111.206
257.68 -99.36 111.2
257.63 -99.19 111.517
257.64 -99.27 111.516
257.67 -99.37 111.506
257.6 -99.24 111.77
257.62 -99.2 111.885
257.65 -99.28 111.818
257.65 -99.29 111.87
257.64 -99.29 111.924
257.66 -99.19 112.214
257.68 -99.18 112.297
257.65 -99.38 111.872
257.66 -99.22 112.233
257.67 -99.26 112.195
257.64 -99.21 112.289
257.68 -99.3 112.212
257.63 -99.26 112.274
257.69 -99.33 112.229
257.7 -99.37 112.193
257.66 -99.31 112.288
257.7 -99.4 112.208
257.71 -99.38 112.294
257.65 -99.36 112.273
257.68 -99.41 112.287
257.65 -99.37 112.274
257.72 -99.39 112.294
257.65 -99.3 112.271
257.69 -99.35 112.189
257.59 -99.14 112.2
257.66 -99.16 112.216
257.68 -99.36 111.879
257.64 -99.23 111.873
257.63 -99.13 111.523
257.69 -99.31 111.186
257.67 -99.19 111.197
257.66 -99.28 109.613
257.68 -99.4 109.324
257.65 -99.15 109.608
257.64 -99.34 109.244
257.23 -94.96 112.257
257.25 -95.16 112.256
257.26 -95.12 112.284
257.23 -95.02 112.26
257.24 -94.99 112.287
257.21 -94.93 112.235
257.58 -99.14 109.569
257.27 -95.18 108.008
257.26 -95.13 108.033
257.26 -95.08 107.991
257.26 -95.03 108.017
257.24 -94.97 107.97
257.25 -94.97 107.901
257.24 -94.96 107.829
257.25 -94.96 107.761
257.62 -97.91 112.289
257.23 -94.9 112.261
257.2 -94.75 112.275
257.63 -98.19 108.316
257.64 -98.22 111.68
257.66 -98.22 109.69
257.65 -98.17 108.762
257.64 -98.23 108.359
257.59 -98.36 108.384
257.62 -98.51 108.167
257.67 -98.25 110.451
257.6 -98.39 110.39
257.59 -98.41 110.651
257.61 -98.5 110.595
257.64 -98.25 111.294
257.65 -98.23 111.456
257.65 -98.26 111.51
257.67 -98.28 111.647
257.64 -98.24 111.736
257.66 -98.28 111.931
257.65 -98.25 112.021
257.65 -98.28 112.079
257.6 -98.34 112.301
257.61 -98.44 112.305
257.6 -98.5 112.299
257.61 -98.39 112.316
257.61 -98.26 112.302
257.63 -98.27 112.052
257.62 -98.25 111.71
257.64 -98.27 111.585
257.62 -98.23 111.465
257.64 -98.27 111.424
257.65 -98.27 111.386
257.64 -98.26 111.348
257.65 -98.26 111.271
257.64 -98.25 111.232
257.65 -98.25 111.19
257.65 -98.25 111.15
257.65 -98.26 111.112
257.66 -98.26 111.075
257.6 -98.5 110.538
257.66 -98.26 111.006
257.67 -98.26 110.972
257.67 -98.26 110.937
257.62 -98.24 110.517
257.64 -98.25 110.353
257.65 -98.26 110.208
257.67 -98.29 110.159
257.66 -98.27 110.109
257.67 -98.23 109.74
257.67 -98.28 109.064
257.6 -98.54 108.136
257.59 -98.62 108.009
257.6 -98.62 108.081
257.61 -98.71 108.024
257.61 -98.76 108.317
257.62 -98.69 110.248
257.64 -98.54 112.305
257.59 -98.53 112.285
257.68 -98.65 112.298
257.6 -98.62 112.284
257.6 -98.66 112.256
257.61 -98.71 112.288
257.63 -98.8 112.284
257.65 -98.79 112.314
257.62 -98.74 112.282
257.6 -98.6 112.291
257.61 -98.53 110.802
257.63 -98.8 110.416
257.61 -98.63 110.384
257.61 -98.56 109.791
257.64 -98.82 109.035
257.66 -99.01 107.837
257.65 -98.87 108.129
257.66 -99.05 107.81
257.66 -99 107.906
257.65 -98.96 108.002
257.65 -99.04 107.874
257.64 -98.99 107.972
257.64 -98.94 108.069
257.66 -99.08 107.847
257.6 -98.83 108.326
257.62 -98.99 108.283
257.64 -98.83 109.268
257.65 -98.89 109.361
257.6 -99.08 108.925
257.62 -98.99 109.203
257.62 -99.02 109.251
257.62 -99.09 109.272
257.6 -99.03 109.371
257.61 -99.02 109.447
257.64 -99.08 111.206
257.64 -99.07 111.289
257.62 -99.09 111.263
257.6 -99.09 111.323
257.64 -99.07 111.433
257.64 -99.1 111.404
257.6 -99.09 111.468
257.61 -99.11 111.522
257.62 -99.09 111.608
257.62 -99.07 111.693
257.6 -99.09 111.666
257.63 -99.09 111.747
257.61 -99.1 111.722
257.62 -99.09 111.808
257.61 -99.09 111.869
257.63 -99.08 111.955
257.71 -98.97 112.3
257.61 -99.09 111.928
257.6 -99.09 111.986
257.63 -99.06 112.1
257.63 -99.09 112.069
257.68 -99.02 112.299
257.65 -99.08 112.152
257.62 -99.09 112.125
257.64 -99.1 112.179
257.67 -99.07 112.294
257.62 -99.1 112.303
257.6 -99.09 112.026
257.6 -99.08 111.949
257.6 -99.09 111.909
257.68 -98.93 112.309
257.59 -99.07 111.833
257.6 -99.08 111.792
257.59 -99.08 111.753
257.6 -99.08 111.713
257.6 -99.08 111.678
257.6 -99.09 111.638
257.6 -99.08 111.601
257.6 -99.08 111.564
257.61 -99.09 111.489
257.59 -99.07 111.454
257.6 -99.09 111.378
257.6 -99.09 111.341
257.6 -99.08 111.306
257.59 -99.07 111.272
257.59 -99.03 109.491
257.59 -99.02 109.454
257.6 -99.02 109.417
257.6 -99.02 109.378
257.63 -99.07 109.339
257.62 -99.06 109.248
257.23 -94.9 107.785
257.58 -99.08 112.044
257.22 -94.84 107.74
257.23 -94.8 107.769
257.23 -94.75 107.796
257.15 -94.66 107.805
257.15 -94.66 107.734
257.19 -94.56 112.216
257.18 -94.61 112.284
257.19 -94.57 112.226
257.18 -94.52 112.259
257.19 -94.48 112.286
257.16 -94.42 112.238
257.18 -94.39 112.265
257.58 -98.99 109.194
257.12 -94.6 109.386
257.13 -94.59 109.173
257.11 -94.58 109.028
257.12 -94.57 108.81
257.11 -94.34 109.236
257.12 -94.38 108.99
257.12 -94.36 108.775
257.13 -94.6 107.756
257.13 -94.55 107.782
257.13 -94.5 107.738
257.11 -94.44 107.762
257.12 -94.39 107.79
257.13 -94.35 107.818
257.11 -94.33 107.744
257.08 -94.03 108.549
257.1 -94.23 109.319
257.15 -94.18 112.276
257.15 -94.14 112.246
257.14 -94.09 112.279
257.13 -94.04 112.224
257.09 -94.24 109.436
257.1 -94.2 109.464
257.1 -94.24 109.363
257.09 -94.23 109.216
257.11 -94.23 109.145
257.1 -94.22 109.071
257.09 -94.21 108.998
257.12 -94.22 108.928
257.11 -94.3 108.656
257.11 -94.25 108.611
257.05 -94.04 108.928
257.09 -94.23 108.536
257.05 -94.03 108.783
257.07 -92.39 112.253
257.1 -94.18 108.492
257.07 -94.07 108.541
257.01 -92.35 112.281
256.95 -92.36 112.25
257.11 -94.29 107.772
257.1 -94.23 107.798
257.09 -94.22 107.725
257.09 -94.17 107.752
257.1 -94.12 107.78
257.08 -94.06 107.732
257.08 -93.81 108.736
257.06 -94.01 108.601
257.08 -94 109.034
257.09 -93.83 109.284
257.07 -94 109.091
257.08 -93.85 109.34
257.06 -94.02 109.146
257.13 -93.99 112.255
257.14 -93.95 112.285
257.14 -93.81 112.288
257.29 -95.39 107.965
257.3 -95.44 108.008
257.3 -95.49 107.98
257.3 -95.45 108.078
257.3 -95.51 109.426
257.29 -95.48 111.648
257.29 -95.52 109.149
257.29 -95.53 108.742
257.3 -95.62 108.62
257.29 -95.53 108.815
257.3 -95.54 108.889
257.3 -95.72 108.567
257.3 -95.77 108.541
257.29 -95.72 108.637
257.3 -95.55 109.033
257.32 -95.78 108.615
257.31 -95.55 109.107
257.31 -95.82 108.587
257.3 -95.55 109.252
257.29 -95.55 109.474
257.33 -95.67 109.571
257.3 -95.7 109.541
257.29 -95.74 109.514
257.31 -95.75 109.588
257.34 -95.81 109.562
257.29 -95.6 111.182
257.29 -95.69 111.206
257.3 -95.73 111.178
257.3 -95.78 111.149
257.3 -95.81 111.205
257.29 -95.58 112.224
257.3 -95.63 112.19
257.3 -95.67 112.16
257.3 -95.75 112.188
257.3 -95.79 112.16
257.3 -95.82 112.217
257.29 -95.67 111.218
257.31 -95.76 109.588
257.3 -95.72 109.531
257.29 -95.55 109.203
257.3 -95.58 108.639
257.3 -95.86 108.56
257.3 -95.9 108.533
257.32 -95.87 108.635
257.32 -96.01 108.412
257.31 -96 108.484
257.32 -96.06 108.459
257.33 -95.97 108.658
257.33 -96.06 108.532
257.34 -95.98 108.731
257.31 -96.05 108.602
257.33 -95.97 108.801
257.34 -96.11 108.579
257.32 -96.06 108.674
257.35 -95.99 108.876
257.32 -96.06 108.746
257.33 -95.98 108.944
257.3 -96.06 108.816
257.34 -95.99 109.018
257.34 -96.07 108.891
257.34 -95.98 109.09
257.31 -96.06 108.961
257.33 -95.98 109.161
257.32 -96.07 109.034
257.34 -95.99 109.235
257.32 -95.85 109.534
257.32 -96.07 109.108
257.33 -95.98 109.308
257.32 -96.07 109.18
257.34 -95.99 109.382
257.32 -95.89 109.582
257.34 -95.99 109.456
257.35 -95.95 109.557
257.33 -95.99 109.529
257.34 -96.08 109.402
257.32 -96.11 109.374
257.31 -96.11 109.445
257.34 -95.93 110.459
257.33 -96.01 110.406
257.33 -96.1 110.274
257.32 -95.86 111.176
257.33 -95.91 111.15
257.3 -95.92 111.373
257.3 -96.01 111.234
257.32 -95.91 111.535
257.29 -95.98 111.399
257.32 -95.95 111.506
257.29 -95.89 111.621
257.32 -95.99 111.478
257.34 -95.95 111.587
257.32 -95.93 111.757
257.32 -96.08 112.228
257.32 -96.02 112.072
257.31 -96 112.019
257.3 -95.96 111.965
257.32 -95.95 111.848
257.32 -95.96 111.79
257.32 -95.94 111.731
257.29 -96.01 111.492
257.32 -95.9 111.676
257.3 -96 111.436
257.32 -95.89 111.62
257.31 -96.01 111.381
257.31 -96 111.329
257.3 -95.96 111.279
257.38 -96.07 111.075
257.33 -95.95 110.484
257.34 -96.01 109.417
257.34 -95.99 109.361
257.33 -95.96 109.305
257.31 -96.05 109.072
257.32 -96.06 109.021
257.32 -96.05 108.968
257.33 -96.01 108.812
257.34 -95.99 108.703
257.34 -95.96 108.647
257.34 -96.16 108.552
257.35 -96.21 108.527
257.33 -96.2 108.595
257.35 -96.26 108.571
257.38 -96.32 108.548
257.36 -96.35 108.591
257.35 -96.39 108.564
257.3 -96.15 109.198
257.35 -96.13 109.302
257.33 -96.21 109.246
257.33 -96.26 109.218
257.34 -96.12 109.519
257.37 -96.32 109.267
257.34 -96.17 109.566
257.34 -96.35 109.239
257.35 -96.22 109.54
257.36 -96.4 109.214
257.33 -96.25 109.513
257.34 -96.3 109.562
257.36 -96.35 109.537
257.36 -96.15 110.852
257.3 -96.14 111.069
257.32 -96.19 111.12
257.36 -96.3 111.061
257.31 -96.26 112.237
257.34 -96.4 112.225
257.36 -96.37 112.258
257.34 -96.32 112.222
257.34 -96.22 111.143
257.36 -96.16 110.845
257.36 -96.14 110.251
257.37 -96.4 109.571
257.34 -96.2 109.246
257.37 -96.45 108.54
257.36 -96.49 108.583
257.37 -96.45 109.263
257.36 -96.49 109.236
257.37 -96.54 109.211
257.38 -96.63 109.233
257.38 -96.67 109.207
257.38 -96.53 109.582
257.35 -96.53 111.141
257.42 -96.71 110.89
257.36 -96.61 111.163
257.36 -96.48 112.246
257.35 -96.52 112.218
257.42 -96.66 112.594
257.37 -96.61 112.222
257.36 -96.47 111.176
257.42 -96.72 110.886
257.44 -96.42 111.086
257.41 -96.66 110.682
257.4 -96.62 110.636
257.4 -96.69 109.57
257.38 -96.51 109.244
257.37 -96.79 109.205
257.43 -96.9 109.31
257.42 -97.02 109.157
257.4 -96.83 109.557
257.42 -96.88 109.532
257.43 -97.01 109.452
257.43 -96.91 109.878
257.42 -96.76 110.187
257.44 -96.97 110.209
257.44 -96.96 110.439
257.43 -97 110.41
257.38 -96.82 111.098
257.37 -96.92 111.173
257.41 -96.99 111.22
257.41 -96.97 111.301
257.41 -97 111.351
257.44 -97.02 111.426
257.4 -96.98 111.512
257.41 -97.01 111.641
257.4 -96.97 111.895
257.4 -96.95 111.98
257.38 -96.97 112.034
257.41 -96.97 112.113
257.42 -96.96 112.279
257.43 -96.93 112.292
257.37 -96.78 112.198
257.36 -96.73 112.083
257.43 -96.99 111.852
257.42 -96.97 111.813
257.39 -96.75 111.166
257.44 -96.97 110.875
257.43 -96.93 110.82
257.44 -96.93 110.765
257.44 -96.92 110.712
257.43 -96.82 110.462
257.43 -96.81 110.412
257.44 -96.96 110.144
257.43 -96.87 109.298
257.4 -96.78 109.237
257.46 -97.09 108.916
257.43 -97.03 109.012
257.42 -97.12 108.886
257.45 -97.09 108.988
257.43 -97.03 109.085
257.42 -97.11 108.959
257.43 -97.07 109.058
257.44 -97.08 109.133
257.45 -97.12 109.107
257.44 -97.11 109.179
257.44 -97.11 109.253
257.43 -97.1 109.325
257.38 -97.11 109.445
257.46 -97.26 109.596
257.48 -97.32 109.571
257.46 -97.22 110.272
257.46 -97.11 110.558
257.45 -97.11 110.636
257.45 -97.1 110.713
257.45 -97.14 110.686
257.45 -97.12 111.206
257.39 -97.07 111.37
257.42 -97.06 111.529
257.41 -97.25 111.167
257.43 -97.06 111.609
257.4 -97.07 111.667
257.43 -97.04 111.776
257.4 -97.06 111.749
257.42 -97.07 111.963
257.44 -97.1 112.178
257.46 -97.21 112.168
257.48 -97.18 112.279
257.46 -97.24 112.22
257.46 -97.28 112.189
257.57 -97.31 112.283
257.45 -97.26 112.277
257.46 -97.31 112.174
257.53 -97.32 112.293
257.42 -97.1 112.274
257.44 -97.11 112.188
257.39 -97.14 111.98
257.43 -97.07 112.113
257.36 -97.07 111.911
257.43 -97.06 112.077
257.37 -97.07 111.876
257.44 -97.07 112.041
257.38 -97.07 111.839
257.37 -97.05 111.804
257.37 -97.03 111.765
257.39 -97.06 111.722
257.39 -97.05 111.682
257.4 -97.06 111.641
257.4 -97.04 111.565
257.42 -97.06 111.525
257.43 -97.07 111.485
257.36 -97.07 111.277
257.42 -97.05 111.445
257.44 -97.22 111.226
257.43 -97.06 111.4
257.46 -97.25 111.178
257.44 -97.06 111.352
257.44 -97.06 111.303
257.45 -97.06 111.251
257.46 -97.1 110.541
257.46 -97.09 110.489
257.45 -97.07 110.436
257.45 -97.06 110.387
257.47 -97.21 110.123
257.46 -97.22 109.564
257.42 -97.12 109.508
257.42 -97.11 109.455
257.42 -97.1 109.403
257.43 -97.1 109.351
257.45 -97.12 109.299
257.38 -97.1 109.07
257.45 -97.1 109.245
257.37 -97.07 109.014
257.45 -97.1 109.191
257.37 -97.06 108.959
257.45 -97.08 109.136
257.39 -97.09 108.909
257.45 -97.07 109.083
257.41 -97.12 108.86
257.45 -97.05 109.03
257.49 -97.49 109.536
257.47 -97.48 111.376
257.48 -97.51 111.507
257.48 -97.54 111.478
257.48 -97.52 111.641
257.4 -97.54 111.592
257.47 -97.54 111.694
257.47 -97.53 111.778
257.49 -97.53 111.859
257.45 -97.45 111.981
257.45 -97.34 112.216
257.47 -97.55 111.833
257.47 -97.39 112.182
257.56 -97.4 112.28
257.48 -97.47 112.12
257.53 -97.48 112.284
257.53 -97.58 112.283
257.48 -97.48 112.114
257.48 -97.49 112.074
257.48 -97.48 112.035
257.48 -97.47 111.997
257.48 -97.46 111.956
257.48 -97.46 111.914
257.48 -97.45 111.874
257.48 -97.54 111.514
257.48 -97.52 111.446
257.48 -97.51 111.406
257.49 -97.51 111.326
257.49 -97.5 111.287
257.49 -97.49 111.249
257.48 -97.47 111.213
257.46 -97.4 111.139
257.49 -97.47 110.206
257.51 -97.59 109.846
257.51 -97.58 109.798
257.5 -97.54 109.75
257.5 -97.53 109.702
257.49 -97.47 109.554
257.49 -97.57 109.194
257.49 -97.57 109.144
257.5 -97.57 109.094
257.54 -97.78 109.087
257.54 -97.82 109.059
257.54 -97.77 109.159
257.53 -97.77 109.231
257.54 -97.86 109.106
257.53 -97.9 109.077
257.52 -97.74 109.522
257.52 -97.74 109.596
257.51 -97.72 109.743
257.52 -97.82 109.949
257.53 -97.85 110.071
257.51 -97.7 110.383
257.52 -97.88 110.117
257.52 -97.75 110.626
257.51 -97.68 111.093
257.5 -97.81 110.925
257.52 -97.75 111.19
257.51 -97.64 111.413
257.52 -97.77 112.281
257.52 -97.87 112.282
257.52 -97.68 111.116
257.51 -97.66 111.079
257.52 -97.72 110.37
257.54 -97.89 110.155
257.53 -97.86 110.101
257.54 -97.86 110.047
257.53 -97.82 109.937
257.53 -97.82 109.885
257.53 -97.81 109.785
257.52 -97.74 109.592
257.53 -97.74 109.546
257.53 -97.73 109.498
257.53 -97.72 109.449
257.53 -97.7 109.4
257.53 -97.7 109.351
257.52 -97.66 109.298
257.54 -97.83 109.095
257.51 -97.63 109.247
257.54 -98 108.809
257.55 -98.04 108.783
257.55 -98 108.882
257.53 -98.03 108.851
257.53 -97.94 109.051
257.54 -98.11 108.798
257.55 -98.11 108.943
257.5 -98.21 108.782
257.53 -98.04 109.999
257.56 -98.06 110.342
257.56 -98.1 110.314
257.55 -98.05 110.418
257.51 -98.06 110.39
257.55 -98.03 110.495
257.54 -98.08 110.876
257.54 -98.07 111.393
257.54 -98.12 111.499
257.54 -98.16 112.28
257.58 -98.21 112.274
257.55 -98.04 112.301
257.57 -98.22 111.079
257.58 -98.19 108.698
257.58 -98.28 108.367
257.57 -98.32 108.338
257.58 -98.44 108.399
257.58 -98.52 108.273
257.56 -98.51 108.338
257.58 -98.36 109.318
257.58 -98.37 109.914
257.58 -98.45 112.283
257.57 -98.65 107.974
257.56 -98.76 110.449
257.06 -94.02 109.398
257.08 -94.02 109.325
257.08 -94.02 109.251
257.08 -94.01 109.178
257.08 -94.01 109.104
257.07 -93.74 109.635
257.09 -93.83 109.433
257.07 -94 109.03
257.05 -93.76 109.458
257.09 -93.83 109.359
257.08 -93.82 109.285
257.08 -93.82 109.212
257.07 -93.99 108.812
257.05 -94.02 108.71
257.07 -93.81 109.138
257.06 -94.02 108.639
257.07 -93.8 109.065
257.06 -94.01 108.566
257.08 -93.8 108.994
257.06 -93.79 108.919
257.07 -93.83 108.821
257.07 -93.78 108.847
257.08 -93.78 108.776
257.07 -93.77 108.703
257.09 -93.77 108.562
257.01 -92.64 107.736
257.01 -92.64 107.805
257 -92.6 107.901
257.02 -92.7 107.782
257.02 -92.65 107.878
257.02 -92.61 107.975
257.03 -92.75 107.756
257.01 -92.61 108.045
257.05 -92.81 107.734
257.02 -92.62 108.118
257.01 -92.63 108.189
257.01 -92.63 108.26
257 -92.63 108.331
256.98 -92.58 108.426
257 -92.6 108.502
257 -92.6 108.574
257 -92.6 108.646
257.01 -92.62 108.72
257.01 -92.62 108.794
257.01 -92.67 108.769
257 -92.63 108.868
257.01 -92.64 108.943
257 -92.63 109.018
257 -92.64 109.093
256.99 -92.59 109.192
257 -92.65 109.169
257 -92.6 109.268
257 -92.65 109.244
257 -92.6 109.344
257 -92.61 109.42
257.01 -92.62 109.496
257.01 -92.63 109.572
256.99 -92.62 109.649
257.01 -92.68 109.626
257.01 -92.63 109.727
257 -92.63 109.805
257.01 -92.69 109.783
257 -92.63 109.885
257.01 -92.64 109.962
257 -92.64 110.04
256.99 -92.59 110.143
257 -92.65 110.118
256.99 -92.59 110.223
257.01 -92.61 110.299
257.01 -92.62 110.377
256.99 -92.61 110.456
257 -92.61 110.535
257.01 -92.62 110.616
256.99 -92.61 110.698
257 -92.67 110.671
257.01 -92.63 110.777
256.99 -92.62 110.859
257 -92.68 110.831
257 -92.62 110.939
256.99 -92.63 111.018
257.01 -92.64 111.096
257 -92.63 111.178
257.01 -92.64 111.257
257.01 -92.64 111.338
257 -92.64 111.42
256.99 -92.64 111.503
257.01 -92.65 111.583
257 -92.64 111.668
257 -92.65 111.75
256.99 -92.64 111.836
257 -92.7 111.806
257 -92.65 111.919
257 -92.65 112.004
257.01 -92.7 111.971
257.01 -92.65 112.088
257.08 -94.01 107.758
257.08 -92.59 112.654
257 -92.8 112.254
257.04 -92.66 112.691
256.99 -92.73 112.728
256.98 -92.82 112.758
257.01 -92.7 112.744
257 -92.6 112.113
257 -92.64 111.651
257.06 -93.95 107.777
256.99 -92.59 111.593
257 -92.62 111.089
257.01 -92.65 110.574
257 -92.6 110.516
257.01 -92.66 110.078
257 -92.6 110.016
257.01 -92.63 109.505
257 -92.63 109.022
257 -92.59 108.47
257.04 -92.86 107.778
257.02 -92.91 107.75
257.03 -92.96 107.726
257.04 -92.97 107.799
257.04 -93.02 107.774
257.05 -93.07 107.75
257 -92.85 112.223
257.1 -92.91 112.287
257.06 -93.91 107.802
257.03 -92.91 112.273
257.02 -92.96 112.243
257.07 -93.9 107.73
257.04 -93.07 112.264
257.05 -93.12 107.726
257.05 -93.13 107.798
257.07 -93.19 107.778
257.06 -93.23 107.753
257.06 -93.28 107.728
257.01 -93.36 107.741
257.02 -93.33 108.609
257.03 -93.39 108.584
257.03 -93.34 108.684
257.02 -93.35 108.755
257.03 -93.35 108.831
257.03 -93.36 108.905
257.08 -93.86 107.757
257.04 -93.12 112.232
257.09 -93.81 107.784
257.06 -93.23 112.251
257.08 -93.76 107.809
257.04 -93.74 107.729
257.07 -93.38 112.231
257.07 -93.26 112.218
256.98 -93.34 109.522
256.98 -93.33 108.963
257 -93.34 108.908
257.02 -93.36 108.856
257.03 -93.34 108.802
257.02 -93.41 108.441
257.03 -93.43 107.794
257.01 -93.47 107.768
257.02 -93.53 107.747
257.04 -93.54 107.824
257.06 -93.6 107.805
257.04 -93.64 107.777
257.05 -93.69 107.754
257.03 -93.44 108.558
257.04 -93.49 108.535
257.03 -93.54 108.583
257.04 -93.6 108.56
257.05 -93.65 108.61
257.05 -93.7 108.584
257.05 -93.57 109.64
257.07 -93.63 109.614
257.1 -93.7 109.662
257.08 -93.44 112.28
257.09 -93.49 112.245
257.02 -93.55 108.61
257.14 -93.57 112.287
257.1 -93.6 112.262
257.09 -93.64 112.231
257.05 -93.62 109.642
254.78 -102.18 115.147
257.28 -93.23 112.294
257.27 -93.07 112.302
257.23 -92.84 112.264
257.2 -92.77 112.473
257.26 -92.82 112.286
257.26 -92.76 112.317
254.78 -102.11 115.259
257.24 -92.6 112.326
254.92 -102.23 115.175
255.01 -102.33 115.021
255.06 -102.33 114.93
255.13 -102.32 114.992
255.11 -102.31 114.837
254.72 -101.29 115.102
254.8 -101.34 115.056
254.87 -101.4 115.003
255.39 -101.86 114.578
255.46 -101.92 114.531
256.87 -98.66 113.203
256.77 -98.54 113.264
256.97 -98.8 113.13
256.9 -98.71 113.183
256.82 -98.61 113.237
256.93 -98.75 113.164
256.84 -98.64 113.222
256.74 -98.53 113.282
256.94 -98.77 113.148
256.86 -98.67 113.201
256.82 -98.61 113.245
256.93 -98.74 113.166
256.84 -98.63 113.222
256.76 -98.53 113.279
256.86 -98.65 113.204
256.8 -98.57 113.253
254.66 -101.21 115.161
255.69 -102.16 114.3
255.76 -102.12 114.363
255.76 -102.2 114.263
255.54 -101.96 114.485
255.62 -102 114.451
255.7 -102.04 114.417
254.44 -100.68 115.204
255.85 -102.24 114.244
257.56 -95.71 112.281
257.52 -95.61 112.261
257.52 -95.52 112.317
255.93 -102.27 114.22
256.02 -102.31 114.181
256.02 -102.38 114.084
257.48 -95.01 112.322
257.45 -94.95 112.273
256.1 -102.43 114.067
256.18 -102.48 114.033
257.44 -94.55 112.291
257.42 -94.49 112.327
256.25 -102.52 113.991
256.34 -102.56 113.959
256.48 -102.76 113.756
256.54 -102.83 113.714
257.38 -93.96 112.319
257.37 -93.91 112.269
256.61 -102.88 113.67
257.34 -93.8 112.257
257.35 -93.71 112.321
257.42 -93.51 112.379
256.42 -102.58 113.923
256.49 -102.65 113.868
256.56 -102.71 113.819
254.36 -100.01 115.197
256.84 -103.03 113.533
256.92 -103.13 113.392
256.69 -102.93 113.621
256.77 -102.97 113.579
257.22 -92.38 112.363
256.98 -103.13 113.448
257.19 -92.36 112.288
257.05 -103.19 113.404
257.3 -92.38 112.375
257.12 -103.23 113.358
257.2 -103.27 113.325
257.28 -103.3 113.3
257.36 -103.34 113.262
257.34 -103.47 113.163
257.43 -103.5 113.146
257.53 -103.49 113.141
257.53 -103.58 113.058
254.27 -99 115.195
257.61 -103.62 113.04
257.7 -103.62 113.02
257.76 -103.71 112.97
257.76 -103.79 112.873
257.84 -103.83 112.847
254.25 -98.7 115.195
258 -100.03 112.288
257.99 -103.98 112.687
258.1 -100.06 112.392
258.05 -104.03 112.667
258.12 -100.1 112.359
258 -100.03 112.326
258.07 -100.11 112.35
257.99 -100.05 112.337
258.01 -100.09 112.305
258.02 -100.12 112.274
258 -100.08 112.345
258.01 -100.11 112.315
258.07 -100.1 112.429
258.02 -100.11 112.355
258.03 -100.09 112.449
258.02 -100.15 112.296
258.11 -100.2 112.374
258.03 -100.14 112.36
258.02 -100.15 112.332
258.1 -100.18 112.413
257.98 -100.14 112.28
258.11 -100.21 112.38
258.01 -100.13 112.371
258.01 -100.07 112.471
258.1 -100.19 112.42
258.03 -100.2 112.278
257.99 -100.11 112.382
258.07 -100.16 112.432
258.03 -100.2 112.281
258.13 -100.24 112.387
258.02 -100.16 112.345
257.91 -103.87 112.815
257.98 -103.91 112.774
257.96 -100.03 112.487
258.02 -100.18 112.311
254.21 -98.42 115.194
258.07 -100.16 112.431
258.34 -104.23 112.503
258.43 -104.28 112.389
258.01 -100.19 112.281
258.27 -104.12 112.602
258.01 -100.13 112.379
258.27 -104.2 112.526
258.02 -100.17 112.315
258.38 -104.21 112.429
254.16 -97.83 115.193
254.13 -97.54 115.194
253.97 -96.16 115.208
253.98 -95.32 115.165
254.06 -95.31 115.256
254.28 -95.35 114.996
254.2 -95.38 115.022
254.14 -95.36 115.061
254.12 -95.36 115.08
254.09 -95.37 115.087
254.11 -95.38 115.123
254.13 -95.38 115.16
254.13 -95.36 115.204
254.09 -95.38 115.111
254.11 -95.37 115.154
254.13 -95.37 115.19
254.07 -95.37 115.107
254.11 -95.37 115.143
254.13 -95.37 115.183
254.14 -95.36 115.225
254.08 -95.37 115.102
254.11 -95.37 115.142
254.13 -95.37 115.184
254.11 -95.37 115.152
254.1 -95.37 115.118
254.09 -95.37 115.082
254.11 -95.36 115.127
254.12 -95.37 115.07
254.15 -95.37 115.046
254.17 -95.37 115.026
254.22 -95.35 115.037
254.24 -95.36 114.991
254.28 -95.36 114.984
253.94 -94.99 115.28
253.95 -95.03 115.151
253.96 -95.16 115.217
254.57 -95.68 114.851
254.54 -95.69 114.885
254.49 -95.78 114.931
254.5 -95.81 114.902
254.49 -95.82 114.886
254.48 -95.79 114.932
254.49 -95.8 114.918
254.48 -95.81 114.868
254.49 -95.8 114.912
254.48 -95.78 114.923
254.47 -95.75 114.939
254.48 -95.72 114.931
254.57 -95.82 114.768
254.54 -95.73 114.878
254.55 -95.71 114.861
254.57 -95.75 114.774
254.51 -95.63 114.889
254.5 -95.3 114.849
254.39 -95.33 114.941
254.34 -95.35 114.941
254.32 -95.35 114.963
254.38 -95.34 114.893
254.43 -95.34 114.921
254.45 -95.34 114.861
254.49 -95.31 114.838
254.49 -95.25 114.831
254.5 -95.21 114.823
254.49 -95.19 114.823
254.49 -95.12 114.814
254.48 -95.08 114.769
254.47 -95.04 114.814
254.47 -95 114.766
254.46 -94.92 114.766
253.93 -94.87 115.21
254.45 -94.91 114.857
254.46 -94.88 114.897
254.45 -94.87 114.811
254.47 -94.89 114.719
254.5 -95.85 114.819
254.5 -95.83 114.862
254.57 -95.94 114.772
254.49 -95.84 114.842
254.5 -95.85 114.827
254.5 -95.83 114.869
254.5 -95.85 114.817
254.5 -95.84 114.82
254.57 -95.9 114.77
254.52 -95.84 114.799
254.56 -95.86 114.769
254.72 -96.06 114.671
254.67 -96.02 114.703
254.58 -95.91 114.774
254.63 -95.99 114.737
254.68 -96.06 114.697
254.6 -95.97 114.749
254.65 -96.02 114.724
254.65 -96.01 114.722
254.59 -95.94 114.752
254.71 -96.06 114.674
254.7 -95.54 114.737
254.66 -95.57 114.779
254.61 -95.6 114.819
254.6 -95.67 114.827
254.61 -95.63 114.82
254.61 -95.58 114.816
254.69 -95.57 114.738
254.7 -95.59 114.645
254.71 -95.53 114.721
254.76 -95.43 114.69
254.73 -95.49 114.707
254.76 -95.45 114.689
254.78 -95.4 114.671
254.86 -95.35 114.595
254.88 -95.29 114.582
254.81 -96.16 114.604
254.84 -96.24 114.583
254.75 -96.13 114.656
254.78 -96.18 114.623
254.84 -96.26 114.583
254.73 -96.12 114.665
254.84 -96.26 114.572
254.75 -96.15 114.644
254.84 -96.25 114.566
254.75 -96.13 114.642
254.84 -96.23 114.573
254.83 -96.21 114.586
257.2 -99.06 112.976
257.22 -99.09 112.971
257.01 -98.84 113.095
257.2 -99.08 112.971
257.11 -98.98 113.027
257.05 -98.9 113.077
257.22 -99.11 112.957
257.16 -99.03 113.004
257.08 -98.94 113.057
257.01 -98.84 113.111
257.18 -99.07 112.989
257.11 -98.97 113.04
257.03 -98.87 113.094
257.2 -99.09 112.97
257.13 -99 113.019
257.06 -98.91 113.068
257 -98.83 113.115
257.19 -99.05 112.988
257.11 -98.95 113.041
257.03 -98.86 113.094
257.05 -98.86 113.078
254.97 -96.38 114.483
254.93 -96.35 114.515
254.89 -96.31 114.547
254.93 -96.36 114.514
254.95 -96.38 114.495
254.99 -96.41 114.476
254.98 -96.39 114.481
254.92 -96.32 114.511
255.12 -95.01 114.377
255.05 -95.08 114.435
254.99 -95.15 114.491
254.93 -95.22 114.544
254.96 -95.15 114.509
255.02 -95.15 114.453
255.03 -95.07 114.448
255.09 -95.06 114.387
255.1 -94.98 114.384
255.15 -94.97 114.328
255.08 -96.51 114.409
255.15 -96.6 114.364
255.11 -96.58 114.393
255.01 -96.45 114.469
255.16 -96.63 114.359
255.02 -96.48 114.442
255.1 -96.55 114.406
255.17 -96.64 114.33
255.1 -96.55 114.394
255.06 -96.48 114.418
255.18 -96.66 114.333
255.19 -96.67 114.334
255.18 -94.93 114.317
257.88 -98.93 112.294
257.85 -98.55 112.274
257.87 -98.69 112.286
257.86 -98.67 112.289
257.86 -98.63 112.318
257.85 -98.58 112.285
255.39 -94.68 114.124
255.33 -94.78 114.181
257.84 -98.29 112.237
255.25 -94.84 114.255
257.84 -98.42 112.297
255.2 -94.86 114.288
257.84 -98.48 112.281
257.84 -98.45 112.309
257.84 -98.39 112.281
257.84 -98.36 112.309
255.27 -94.85 114.234
255.3 -94.81 114.193
255.37 -94.74 114.118
255.35 -94.68 114.164
255.4 -94.66 114.114
255.44 -94.63 114.075
255.46 -94.58 114.073
255.45 -94.45 114.054
255.47 -96.97 114.133
255.44 -96.95 114.158
255.36 -96.85 114.221
255.26 -96.74 114.289
255.39 -96.91 114.189
255.28 -96.78 114.264
255.44 -96.97 114.154
255.37 -96.88 114.217
255.27 -96.77 114.284
255.39 -96.9 114.194
255.27 -96.77 114.269
255.43 -96.93 114.17
255.32 -96.81 114.244
255.34 -96.81 114.231
257.77 -97.77 112.283
257.75 -97.8 112.269
257.67 -97.66 112.344
257.75 -97.7 112.269
257.82 -97.4 112.386
257.75 -97.41 112.297
257.72 -97.58 112.274
257.73 -97.5 112.332
257.69 -97.31 112.322
257.7 -97.25 112.296
257.73 -96.42 112.39
257.67 -96.67 112.342
257.61 -96.63 112.366
257.62 -96.29 112.376
257.66 -96.2 112.373
257.63 -95.97 112.382
257.65 -96.03 112.403
257.62 -95.93 112.379
257.62 -95.65 112.411
257.28 -99.15 112.923
257.25 -99.15 112.939
257.25 -99.12 112.943
257.42 -99.34 112.82
257.36 -99.25 112.869
257.46 -99.39 112.805
257.37 -99.28 112.863
257.29 -99.18 112.917
257.45 -99.4 112.807
257.39 -99.31 112.857
257.31 -99.21 112.91
257.41 -99.34 112.845
257.31 -99.22 112.901
257.4 -99.33 112.838
257.33 -99.24 112.888
257.43 -99.37 112.82
257.36 -99.28 112.868
257.3 -99.2 112.915
257.47 -99.41 112.796
257.38 -99.3 112.848
257.35 -99.24 112.875
257.29 -99.16 112.921
255.63 -94.39 113.906
255.61 -94.38 113.952
255.51 -94.46 114.033
255.55 -94.46 113.989
255.6 -94.43 113.938
255.65 -94.29 113.895
255.72 -94.26 113.836
255.78 -94.23 113.78
255.7 -97.24 113.985
255.58 -97.1 114.061
255.72 -97.29 113.96
255.63 -97.18 114.026
255.54 -97.07 114.089
255.74 -97.31 113.971
255.62 -97.17 114.043
255.51 -97.04 114.114
255.63 -97.2 114.021
255.55 -97.1 114.083
255.74 -97.31 113.973
255.62 -97.17 114.044
255.5 -97.03 114.12
255.72 -97.29 113.962
255.65 -97.2 114.023
255.56 -97.09 114.088
255.54 -97.04 114.086
258.01 -99.13 112.399
258.05 -99.29 112.383
258.05 -99.38 112.385
257.94 -99.36 112.28
257.93 -99.32 112.316
258.04 -99.32 112.393
258.03 -99.28 112.371
257.91 -99.24 112.277
257.99 -99.21 112.411
257.95 -99.15 112.452
258 -99.19 112.385
257.9 -99.16 112.287
257.99 -98.91 112.393
257.89 -98.96 112.277
257.91 -99.08 112.303
257.98 -99.09 112.394
257.89 -99.09 112.292
257.9 -99.06 112.32
257.9 -99.02 112.289
257.89 -98.98 112.321
257.96 -98.94 112.395
257.93 -98.7 112.429
257.95 -98.57 112.408
257.94 -98.48 112.362
257.96 -98.52 112.372
257.58 -99.51 112.723
257.51 -99.44 112.767
257.52 -99.47 112.757
257.53 -99.49 112.754
257.54 -99.51 112.749
257.47 -99.42 112.798
257.57 -99.54 112.732
257.49 -99.45 112.782
257.58 -99.55 112.722
257.48 -99.44 112.777
257.53 -99.48 112.754
257.87 -99.72 112.527
257.59 -99.56 112.707
257.59 -99.56 112.71
258.05 -99.46 112.388
258.03 -99.5 112.398
257.95 -99.55 112.277
257.97 -99.65 112.278
257.97 -99.72 112.281
257.95 -99.7 112.275
258.06 -99.71 112.407
257.95 -99.64 112.289
258 -99.6 112.435
257.96 -99.59 112.299
257.96 -99.56 112.281
258.03 -99.53 112.422
258.07 -99.57 112.361
258.01 -99.49 112.406
257.93 -99.42 112.319
258.05 -99.43 112.394
257.86 -99.88 112.552
257.85 -99.89 112.55
257.87 -99.91 112.542
257.86 -99.91 112.543
257.87 -99.92 112.539
255.8 -94.14 113.773
257.85 -99.87 112.56
255.86 -94.11 113.721
255.9 -94.07 113.675
257.86 -99.76 112.533
256.06 -93.92 113.538
255.97 -94.01 113.633
257.97 -99.78 112.284
255.93 -93.98 113.663
258.09 -99.91 112.403
256 -93.96 113.603
257.99 -99.87 112.283
258.01 -99.94 112.28
257.93 -99.92 112.508
257.92 -99.93 112.515
257.94 -99.97 112.507
257.97 -100.02 112.495
257.96 -100.02 112.495
257.95 -100.02 112.489
256.04 -93.92 113.555
257.9 -99.95 112.524
257.97 -100.01 112.502
257.95 -99.99 112.496
257.94 -99.92 112.504
257.94 -99.89 112.494
255.77 -97.35 113.944
257.99 -100 112.319
257.98 -99.9 112.476
257.99 -99.99 112.284
257.99 -99.87 112.47
258.01 -99.96 112.278
257.98 -99.82 112.47
256 -97.6 113.782
255.91 -97.48 113.847
255.82 -97.38 113.911
255.94 -97.55 113.821
255.85 -97.43 113.886
255.91 -97.52 113.847
255.83 -97.42 113.905
255.97 -97.59 113.81
255.86 -97.46 113.879
255.91 -97.52 113.846
255.83 -97.42 113.907
255.96 -97.56 113.817
257.98 -99.89 112.286
255.85 -97.43 113.886
256 -97.59 113.794
255.87 -97.45 113.868
255.81 -97.36 113.927
255.91 -97.47 113.85
258.08 -99.87 112.398
257.98 -99.84 112.296
258.07 -99.83 112.378
257.98 -99.81 112.276
258.09 -99.79 112.385
257.98 -99.76 112.285
258.13 -100.1 112.37
258.01 -100.11 112.285
258.05 -100.13 112.347
258.1 -100.18 112.372
258.13 -100.19 112.402
258.02 -100.14 112.291
258.12 -100.21 112.371
258.02 -100.16 112.292
258.11 -100.22 112.369
258.11 -100.21 112.4
258.02 -100.17 112.289
258.02 -100.15 112.352
258.08 -100.2 112.372
258.13 -100.24 112.394
258.02 -100.18 112.287
256.72 -98.47 113.308
256.73 -98.51 113.3
256.68 -98.44 113.334
256.74 -98.51 113.294
256.7 -98.46 113.317
256.56 -98.27 113.417
256.64 -98.37 113.362
256.52 -98.24 113.445
256.6 -98.33 113.39
256.67 -98.43 113.335
256.57 -98.3 113.412
256.65 -98.4 113.355
256.54 -98.27 113.44
256.61 -98.36 113.386
256.57 -98.3 113.412
256.65 -98.4 113.355
256.55 -98.26 113.431
256.63 -98.37 113.37
256.67 -98.4 113.336
258.02 -100.14 112.382
258.12 -100.23 112.392
258.02 -100.18 112.284
256.15 -93.82 113.45
256.44 -98.14 113.502
256.39 -98.09 113.531
256.48 -98.19 113.472
256.44 -98.16 113.5
256.47 -98.19 113.473
256.45 -98.15 113.493
256.38 -98.05 113.537
256.36 -98.04 113.559
256.28 -97.97 113.596
256.25 -97.93 113.621
256.34 -98.03 113.564
256.38 -98.08 113.536
256.09 -97.71 113.729
256.2 -97.83 113.662
256.16 -97.81 113.684
256.24 -97.9 113.627
256.1 -97.75 113.72
256.19 -97.86 113.657
256.16 -97.81 113.682
256.1 -97.74 113.722
256.2 -97.86 113.656
256.15 -97.79 113.688
256.23 -97.89 113.627
256.05 -97.68 113.752
256.01 -97.64 113.781
256.07 -97.7 113.745
256.01 -97.63 113.784
256.03 -97.65 113.758
256.35 -93.54 113.285
251.41 -104.66 112.336
251.73 -104.63 112.743
251.64 -104.64 111.565
251.67 -104.64 111.356
251.77 -104.54 111.279
251.63 -104.54 110.922
251.78 -104.64 111.324
251.65 -104.63 110.969
251.78 -104.61 111.197
251.71 -104.63 111.018
251.77 -104.63 111.068
251.64 -104.6 110.714
251.83 -104.61 111.119
251.64 -104.6 110.588
251.68 -104.63 110.638
251.63 -104.54 110.212
251.72 -104.62 110.313
251.77 -104.62 110.362
251.89 -104.62 110.462
251.92 -104.64 110.149
251.99 -104.6 110.202
252.02 -104.64 110.132
252.1 -104.59 110.182
252.17 -104.58 110.233
251.64 -104.52 111.65
252.21 -104.59 110.161
252.42 -104.55 110.56
252.35 -104.56 110.386
252.27 -104.58 110.212
252.48 -104.55 110.611
252.41 -104.55 110.437
252.34 -104.57 110.263
252.48 -104.53 110.487
252.41 -104.54 110.313
252.5 -104.54 110.86
252.56 -104.53 110.913
252.55 -104.54 110.788
252.68 -104.54 111.015
252.54 -104.54 110.662
252.6 -104.54 110.711
252.62 -104.52 110.965
252.76 -104.5 111.192
252.96 -104.48 111.599
252.88 -104.5 111.419
252.81 -104.5 111.242
252.94 -104.5 111.469
252.87 -104.52 111.291
252.8 -104.51 111.114
253 -104.49 111.519
252.86 -104.51 111.164
252.99 -104.49 111.392
253.14 -104.47 111.75
253.27 -104.46 111.983
253.2 -104.46 111.803
253.12 -104.48 111.621
253.33 -104.45 112.035
253.26 -104.45 111.855
253.19 -104.46 111.673
253.38 -104.44 111.958
253.67 -104.42 112.087
253.67 -104.38 111.964
253.72 -104.4 112.016
253.87 -104.47 112.296
253.77 -104.4 111.943
253.76 -104.4 111.814
253.81 -104.41 111.864
253.8 -104.41 111.609
253.86 -104.4 111.663
253.84 -104.39 111.421
253.89 -104.4 111.478
253.82 -104.41 111.301
253.89 -104.37 111.239
253.97 -104.39 111.091
253.96 -104.39 110.97
253.99 -104.38 111.217
254.11 -104.36 111.321
254.03 -104.37 111.025
254.19 -104.36 110.952
254.18 -104.35 110.829
254.23 -104.34 110.754
254.22 -104.36 110.631
254.27 -104.36 110.561
254.2 -104.36 110.388
254.26 -104.36 110.44
254.26 -104.32 110.319
254.24 -104.37 110.198
254.27 -104.42 110.124
254.43 -104.29 112.291
254.54 -104.27 112.275
254.46 -104.3 111.406
254.35 -104.35 110.169
254.38 -104.38 110.09
254.45 -104.36 110.137
254.5 -104.34 110.063
254.62 -104.27 111.31
254.79 -104.36 111.251
254.62 -104.32 110.164
254.68 -104.32 110.212
254.72 -104.33 110.135
254.78 -104.31 110.057
254.93 -104.24 112.275
254.95 -104.29 110.201
255.01 -104.28 110.249
255.07 -104.27 110.297
255.23 -104.25 110.19
255.28 -104.25 110.239
255.33 -104.24 110.168
255.44 -104.22 110.139
255.53 -104.23 111.381
255.49 -104.23 110.185
255.54 -104.23 110.11
255.64 -104.22 110.094
255.7 -104.21 110.145
255.8 -104.2 110.124
255.86 -104.19 110.173
255.91 -104.18 110.104
256.02 -104.17 110.098
256 -104.18 109.983
255.94 -104.18 109.815
255.93 -104.19 109.705
256.06 -104.15 109.926
255.99 -104.17 109.759
255.92 -104.18 109.591
256.04 -104.18 109.814
255.97 -104.19 109.647
255.91 -104.2 109.478
255.97 -104.18 109.532
256.02 -104.17 109.472
256.06 -104.17 109.412
256 -104.17 109.245
256.05 -104.17 109.297
256.15 -104.17 109.273
256.22 -104.1 109.192
256.29 -104.17 109.179
256.15 -104.17 108.733
256.39 -104.04 112.201
256.4 -104.13 109.279
256.47 -104.1 109.326
256.45 -104.13 109.209
256.56 -104.1 109.301
256.61 -104.1 109.346
256.64 -104.11 109.278
256.7 -104.17 112.298
256.93 -104.01 111.93
256.91 -104.02 111.808
256.89 -104.06 111.686
256.83 -104.05 111.513
256.83 -104.09 109.662
256.7 -104.1 109.329
256.88 -104.09 109.714
256.75 -104.08 109.27
256.86 -104.07 109.488
256.79 -104.08 109.323
256.91 -104.07 109.54
256.91 -104.05 109.425
256.84 -104.05 109.26
256.94 -104.06 109.362
257.01 -104.05 111.346
256.99 -104.08 109.82
257.04 -104.07 109.874
257.04 -104.02 109.757
257.14 -104.03 109.859
257.19 -104.05 109.911
257.23 -104.03 109.846
257.27 -104.05 109.898
257.14 -104.06 109.566
257.33 -103.98 112.305
257.32 -104 111.837
257.36 -104.01 111.768
257.37 -104 111.446
257.32 -104.05 109.95
257.37 -104.01 109.885
257.48 -103.95 109.865
257.51 -103.99 109.914
257.81 -103.97 112.285
257.59 -104 109.887
257.67 -104 109.868
257.61 -103.97 109.588
257.6 -104 109.301
257.84 -103.98 109.842
257.59 -104 109.188
257.77 -103.98 109.562
257.63 -103.98 109.117
258.03 -103.95 112.188
258.03 -103.96 111.874
258.04 -103.95 111.567
258.03 -103.96 111.254
258.05 -103.97 109.859
258.04 -103.97 109.455
257.92 -103.95 109.127
257.96 -103.98 109.18
257.95 -103.95 109.066
257.99 -103.95 109.117
251.35 -105.04 112.407
251.47 -105.03 112.387
251.37 -104.88 112.496
251.35 -105.04 112.407
251.47 -105.03 112.387
251.4 -104.8 112.377
251.52 -104.81 112.613
251.62 -104.74 112.677
251.64 -104.8 112.594
251.37 -104.36 112.336
251.85 -104.4 112.905
251.95 -104.42 112.876
252.07 -104.3 112.944
251.55 -104.03 112.641
251.63 -104 112.7
252.06 -104.21 113.04
252.19 -103.97 113.211
254.56 -95.33 115.515
252.02 -103.81 113.001
252.3 -103.88 113.28
252.4 -103.88 113.247
252.53 -103.75 113.321
251.24 -103.56 112.436
254.53 -95.32 115.684
254.54 -95.35 115.667
254.5 -95.38 115.674
254.29 -95.35 115.475
254.41 -95.38 115.621
254.39 -95.39 115.577
254.35 -95.38 115.541
254.3 -95.35 115.508
254.29 -95.36 115.464
254.38 -95.38 115.573
254.33 -95.35 115.545
254.29 -95.36 115.465
254.4 -95.38 115.615
254.37 -95.37 115.582
252.66 -103.41 113.604
254.31 -95.36 115.513
254.44 -95.39 115.661
254.29 -95.36 115.478
254.4 -95.38 115.63
254.4 -95.4 115.585
254.36 -95.38 115.555
254.31 -95.35 115.528
254.3 -95.36 115.488
254.4 -95.39 115.602
254.37 -95.37 115.572
254.34 -95.36 115.539
251.12 -103.08 112.388
251.19 -103.06 112.452
254.29 -95.35 115.475
254.41 -95.37 115.626
254.51 -95.36 115.679
254.57 -95.31 115.712
254.54 -95.29 115.682
254.52 -95.3 115.556
252.87 -103.32 113.642
253 -103.18 113.723
251.14 -102.8 112.429
253.16 -102.81 114.022
253.37 -102.71 114.068
253.56 -102.3 114.388
253.66 -102.21 114.466
251.22 -101.93 112.576
251.24 -102.03 112.629
252.41 -94.84 114.127
252.32 -94.86 114.038
252.27 -94.82 113.957
252.15 -94.7 113.929
252.09 -94.67 113.843
252.03 -94.65 113.757
254.8 -102.18 115.304
254.69 -102.23 115.072
254.84 -102.22 115.359
254.88 -102.22 115.267
254.1 -101.63 114.866
254.21 -101.54 114.948
250.5 -93.4 112.693
254.96 -102.2 115.34
254.19 -95.36 115.276
254.15 -95.35 115.239
254.23 -95.36 115.353
254.19 -95.35 115.315
254.17 -95.36 115.271
254.2 -95.37 115.303
254.17 -95.37 115.263
254.26 -95.36 115.423
254.24 -95.36 115.384
254.21 -95.36 115.346
254.2 -95.37 115.304
254.16 -95.36 115.269
254.25 -95.35 115.433
254.15 -95.37 115.23
254.23 -95.36 115.393
254.22 -95.37 115.352
254.18 -95.35 115.321
254.57 -101.28 115.086
254.19 -95.37 115.275
254.27 -95.36 115.439
254.15 -95.36 115.243
254.25 -95.36 115.402
250.87 -100.97 112.378
254.22 -95.36 115.365
254.21 -95.37 115.325
254.19 -95.36 115.289
254.28 -95.36 115.453
254.26 -95.36 115.416
254.27 -95.3 115.52
254.2 -95.3 115.435
254.13 -95.29 115.347
254.41 -100.94 115.105
252.8 -95.16 114.41
252.73 -95.16 114.327
252.67 -95.14 114.244
252.61 -95.12 114.165
252.57 -95.01 114.23
252.5 -95 114.15
252.45 -94.97 114.071
254.44 -101.01 115.159
253.13 -95.46 114.621
253.05 -95.47 114.533
252.96 -95.31 114.508
252.89 -95.31 114.425
252.84 -95.28 114.346
253.47 -95.71 114.868
253.4 -95.72 114.781
253.34 -95.69 114.697
253.29 -95.61 114.732
253.23 -95.58 114.649
253.18 -95.55 114.565
253.81 -96 115.108
253.64 -95.85 114.986
253.57 -95.86 114.899
253.52 -95.83 114.818
254.39 -100.65 115.143
254.37 -100.88 115.055
250.92 -93.71 113.054
