2.817 -9.473 6.789
2.819 -9.43 6.79
2.844 -9.55 6.803
2.845 -9.507 6.804
2.873 -9.584 6.819
2.876 -9.531 6.822
2.842 -9.496 6.801
2.845 -9.428 6.803
2.874 -9.478 6.82
2.868 -9.411 6.819
2.916 -9.578 6.842
2.935 -9.568 6.857
2.922 -9.523 6.843
2.944 -9.537 6.855
2.98 -9.564 6.879
2.972 -9.536 6.871
2.913 -9.468 6.841
2.937 -9.478 6.858
2.913 -9.419 6.841
2.945 -9.424 6.859
2.974 -9.474 6.877
2.976 -9.426 6.877
2.625 -9.374 6.68
2.628 -9.324 6.683
2.656 -9.376 6.695
2.657 -9.314 6.695
2.678 -9.368 6.71
2.67 -9.317 6.707
2.624 -9.275 6.677
2.62 -9.226 6.676
2.665 -9.281 6.697
2.662 -9.23 6.699
2.674 -9.272 6.709
2.685 -9.232 6.714
2.725 -9.377 6.734
2.748 -9.376 6.752
2.716 -9.332 6.73
2.778 -9.37 6.769
2.752 -9.327 6.749
2.779 -9.327 6.767
2.718 -9.276 6.732
2.742 -9.269 6.75
2.724 -9.228 6.736
2.776 -9.269 6.767
2.771 -9.234 6.762
2.627 -9.173 6.681
2.626 -9.12 6.683
2.66 -9.194 6.698
2.654 -9.134 6.695
2.674 -9.173 6.711
2.674 -9.131 6.71
2.618 -9.076 6.679
2.617 -9.027 6.677
2.656 -9.039 6.697
2.677 -9.071 6.712
2.675 -9.022 6.71
2.726 -9.167 6.738
2.742 -9.169 6.754
2.724 -9.127 6.738
2.74 -9.105 6.752
2.78 -9.18 6.769
2.774 -9.125 6.767
2.722 -9.07 6.735
2.746 -9.079 6.75
2.727 -9.016 6.737
2.749 -9.023 6.752
2.771 -9.069 6.763
2.775 -9.029 6.767
2.822 -9.381 6.789
2.818 -9.32 6.79
2.823 -9.276 6.791
2.811 -9.221 6.788
2.846 -9.38 6.805
2.844 -9.326 6.808
2.879 -9.382 6.821
2.87 -9.327 6.819
2.84 -9.273 6.805
2.84 -9.214 6.802
2.878 -9.272 6.822
2.864 -9.216 6.815
2.915 -9.37 6.845
2.943 -9.369 6.861
2.914 -9.321 6.843
2.934 -9.308 6.86
2.979 -9.389 6.882
2.976 -9.32 6.88
2.915 -9.287 6.841
2.941 -9.275 6.857
2.908 -9.222 6.841
2.939 -9.216 6.86
2.979 -9.277 6.883
2.98 -9.237 6.89
2.817 -9.179 6.786
2.823 -9.133 6.791
2.815 -9.073 6.79
2.814 -9.023 6.789
2.839 -9.119 6.803
2.874 -9.174 6.82
2.873 -9.117 6.822
2.836 -9.015 6.802
2.879 -9.069 6.825
2.876 -9.028 6.827
2.908 -9.183 6.844
2.931 -9.174 6.859
2.909 -9.127 6.843
2.931 -9.127 6.858
2.974 -9.179 6.883
2.977 -9.119 6.885
2.915 -9.088 6.847
2.935 -9.083 6.858
2.918 -9.019 6.847
2.935 -9.022 6.86
2.973 -9.081 6.881
2.968 -9.028 6.879
2.208 -8.972 6.441
2.233 -8.973 6.456
2.208 -8.935 6.441
2.234 -8.922 6.458
2.279 -8.982 6.484
2.277 -8.93 6.482
2.208 -8.875 6.444
2.239 -8.87 6.46
2.21 -8.822 6.444
2.232 -8.822 6.457
2.272 -8.867 6.479
2.274 -8.827 6.48
2.304 -8.969 6.496
2.306 -8.91 6.495
2.332 -8.973 6.512
2.329 -8.931 6.513
2.369 -8.977 6.534
2.396 -8.97 6.551
2.371 -8.92 6.537
2.396 -8.929 6.555
2.31 -8.885 6.499
2.306 -8.827 6.495
2.331 -8.874 6.513
2.33 -8.833 6.514
2.379 -8.876 6.537
2.387 -8.856 6.551
2.375 -8.821 6.538
2.397 -8.834 6.55
2.214 -8.778 6.445
2.23 -8.776 6.456
2.209 -8.725 6.443
2.236 -8.733 6.459
2.269 -8.779 6.475
2.28 -8.729 6.483
2.208 -8.671 6.444
2.235 -8.679 6.46
2.211 -8.618 6.445
2.236 -8.626 6.46
2.271 -8.672 6.479
2.28 -8.62 6.486
2.305 -8.775 6.495
2.307 -8.721 6.498
2.325 -8.783 6.508
2.323 -8.72 6.509
2.368 -8.772 6.532
2.374 -8.722 6.536
2.393 -8.729 6.551
2.303 -8.673 6.496
2.306 -8.622 6.499
2.33 -8.68 6.512
2.33 -8.624 6.514
2.374 -8.682 6.536
2.394 -8.689 6.554
2.371 -8.624 6.537
2.397 -8.605 6.55
2.422 -8.978 6.566
2.425 -8.917 6.567
2.467 -8.971 6.591
2.465 -8.917 6.591
2.401 -8.88 6.548
2.422 -8.876 6.565
2.425 -8.825 6.566
2.466 -8.883 6.588
2.465 -8.818 6.591
2.427 -8.778 6.566
2.426 -8.724 6.567
2.465 -8.777 6.589
2.466 -8.723 6.59
2.425 -8.674 6.567
2.426 -8.625 6.567
2.465 -8.678 6.59
2.469 -8.631 6.591
2.479 -8.977 6.603
2.493 -8.929 6.607
2.481 -8.885 6.601
2.488 -8.821 6.602
2.53 -8.98 6.627
2.526 -8.922 6.627
2.558 -8.969 6.644
2.58 -8.974 6.659
2.558 -8.923 6.641
2.578 -8.922 6.659
2.52 -8.879 6.621
2.523 -8.822 6.622
2.558 -8.877 6.645
2.591 -8.88 6.662
2.555 -8.835 6.64
2.583 -8.828 6.656
2.491 -8.768 6.604
2.493 -8.732 6.605
2.49 -8.672 6.605
2.499 -8.638 6.605
2.524 -8.771 6.622
2.53 -8.728 6.628
2.558 -8.769 6.642
2.582 -8.774 6.658
2.56 -8.726 6.645
2.587 -8.73 6.658
2.523 -8.671 6.624
2.528 -8.629 6.626
2.566 -8.68 6.647
2.589 -8.68 6.66
2.56 -8.619 6.642
2.586 -8.627 6.66
2.22 -8.583 6.447
2.233 -8.572 6.459
2.204 -8.527 6.441
2.231 -8.527 6.458
2.268 -8.575 6.479
2.279 -8.525 6.485
2.207 -8.469 6.445
2.233 -8.481 6.46
2.21 -8.419 6.445
2.234 -8.429 6.46
2.279 -8.474 6.485
2.271 -8.424 6.481
2.297 -8.415 6.502
2.304 -8.538 6.5
2.322 -8.578 6.51
2.328 -8.523 6.512
2.368 -8.573 6.535
2.399 -8.567 6.553
2.375 -8.524 6.54
2.304 -8.483 6.497
2.302 -8.416 6.498
2.328 -8.475 6.514
2.325 -8.42 6.514
2.366 -8.477 6.536
2.398 -8.467 6.553
2.373 -8.427 6.539
2.394 -8.434 6.554
2.211 -8.375 6.446
2.23 -8.378 6.46
2.209 -8.317 6.447
2.227 -8.323 6.459
2.276 -8.38 6.485
2.276 -8.332 6.484
2.3 -8.367 6.504
2.299 -8.313 6.501
2.209 -8.271 6.446
2.231 -8.273 6.46
2.209 -8.223 6.445
2.232 -8.227 6.461
2.271 -8.271 6.483
2.279 -8.227 6.486
2.303 -8.364 6.496
2.307 -8.304 6.497
2.33 -8.374 6.517
2.326 -8.329 6.514
2.368 -8.369 6.538
2.392 -8.383 6.552
2.374 -8.329 6.541
2.395 -8.326 6.553
2.302 -8.238 6.496
2.324 -8.274 6.512
2.329 -8.224 6.516
2.363 -8.277 6.536
2.395 -8.272 6.554
2.371 -8.231 6.539
2.392 -8.224 6.553
2.424 -8.578 6.567
2.423 -8.529 6.566
2.464 -8.572 6.592
2.467 -8.526 6.592
2.429 -8.474 6.571
2.425 -8.427 6.569
2.469 -8.483 6.593
2.463 -8.432 6.589
2.421 -8.372 6.569
2.428 -8.325 6.571
2.464 -8.378 6.593
2.463 -8.328 6.592
2.424 -8.274 6.571
2.428 -8.222 6.572
2.467 -8.274 6.595
2.466 -8.219 6.594
2.493 -8.58 6.607
2.493 -8.53 6.608
2.491 -8.477 6.605
2.491 -8.439 6.608
2.523 -8.577 6.622
2.528 -8.528 6.627
2.564 -8.577 6.646
2.586 -8.574 6.658
2.558 -8.527 6.643
2.584 -8.527 6.661
2.522 -8.481 6.624
2.523 -8.425 6.626
2.561 -8.479 6.645
2.575 -8.47 6.656
2.555 -8.417 6.646
2.581 -8.426 6.66
2.488 -8.377 6.606
2.488 -8.327 6.609
2.484 -8.279 6.606
2.487 -8.224 6.608
2.527 -8.37 6.63
2.525 -8.322 6.628
2.557 -8.377 6.645
2.579 -8.379 6.66
2.555 -8.311 6.649
2.58 -8.321 6.66
2.524 -8.276 6.629
2.523 -8.224 6.627
2.557 -8.264 6.646
2.579 -8.281 6.66
2.566 -8.224 6.648
2.577 -8.224 6.659
2.631 -8.976 6.686
2.625 -8.933 6.683
2.653 -8.922 6.697
2.645 -8.934 6.702
2.678 -8.976 6.713
2.685 -8.93 6.715
2.624 -8.877 6.682
2.629 -8.832 6.683
2.653 -8.89 6.695
2.653 -8.81 6.697
2.68 -8.877 6.711
2.677 -8.831 6.711
2.722 -8.969 6.738
2.743 -8.954 6.752
2.725 -8.928 6.737
2.771 -8.97 6.765
2.777 -8.915 6.766
2.73 -8.873 6.74
2.749 -8.883 6.753
2.717 -8.825 6.736
2.745 -8.829 6.754
2.78 -8.884 6.766
2.774 -8.828 6.768
2.628 -8.774 6.682
2.622 -8.727 6.68
2.66 -8.723 6.699
2.682 -8.775 6.715
2.681 -8.734 6.715
2.625 -8.674 6.682
2.625 -8.628 6.682
2.655 -8.664 6.698
2.655 -8.635 6.696
2.679 -8.679 6.711
2.678 -8.627 6.712
2.719 -8.77 6.735
2.718 -8.723 6.736
2.745 -8.735 6.75
2.75 -8.75 6.747
2.778 -8.778 6.768
2.772 -8.716 6.766
2.728 -8.684 6.739
2.717 -8.624 6.734
2.774 -8.674 6.766
2.752 -8.638 6.748
2.773 -8.621 6.767
2.812 -8.975 6.786
2.81 -8.922 6.789
2.818 -8.875 6.791
2.815 -8.815 6.791
2.847 -8.977 6.804
2.844 -8.924 6.807
2.867 -8.973 6.821
2.882 -8.919 6.828
2.841 -8.88 6.804
2.847 -8.808 6.808
2.87 -8.87 6.821
2.867 -8.824 6.822
2.906 -8.969 6.841
2.924 -8.967 6.855
2.909 -8.927 6.843
2.928 -8.914 6.859
2.971 -8.975 6.882
2.976 -8.918 6.885
3 -8.969 6.901
2.909 -8.872 6.843
2.933 -8.878 6.856
2.911 -8.818 6.845
2.929 -8.817 6.858
2.967 -8.872 6.878
2.974 -8.834 6.884
2.816 -8.784 6.789
2.818 -8.724 6.792
2.818 -8.676 6.792
2.813 -8.623 6.789
2.833 -8.766 6.803
2.842 -8.724 6.807
2.876 -8.78 6.826
2.878 -8.724 6.828
2.838 -8.674 6.805
2.835 -8.607 6.806
2.876 -8.672 6.827
2.878 -8.62 6.827
2.916 -8.787 6.848
2.937 -8.78 6.861
2.905 -8.73 6.842
2.932 -8.718 6.859
2.971 -8.778 6.88
2.978 -8.724 6.885
2.908 -8.673 6.846
2.934 -8.673 6.861
2.908 -8.632 6.847
2.938 -8.621 6.861
2.976 -8.672 6.884
2.979 -8.626 6.887
2.627 -8.572 6.683
2.623 -8.522 6.682
2.676 -8.577 6.711
2.674 -8.521 6.712
2.624 -8.475 6.682
2.625 -8.425 6.685
2.651 -8.483 6.698
2.646 -8.402 6.7
2.679 -8.473 6.715
2.676 -8.421 6.714
2.724 -8.572 6.738
2.741 -8.577 6.751
2.717 -8.522 6.735
2.742 -8.521 6.752
2.776 -8.577 6.766
2.775 -8.518 6.769
2.721 -8.477 6.737
2.744 -8.467 6.753
2.722 -8.42 6.74
2.748 -8.437 6.752
2.778 -8.482 6.769
2.775 -8.423 6.77
2.622 -8.376 6.682
2.624 -8.325 6.685
2.652 -8.323 6.699
2.673 -8.376 6.712
2.678 -8.325 6.716
2.618 -8.277 6.681
2.625 -8.224 6.685
2.654 -8.279 6.698
2.652 -8.222 6.699
2.674 -8.275 6.715
2.675 -8.228 6.715
2.718 -8.377 6.737
2.749 -8.36 6.755
2.72 -8.324 6.739
2.742 -8.331 6.756
2.776 -8.376 6.77
2.776 -8.325 6.769
2.722 -8.278 6.741
2.745 -8.266 6.753
2.717 -8.227 6.737
2.747 -8.217 6.754
2.775 -8.275 6.77
2.778 -8.229 6.771
2.813 -8.58 6.789
2.817 -8.529 6.793
2.808 -8.484 6.79
2.818 -8.428 6.791
2.84 -8.583 6.805
2.84 -8.528 6.805
2.876 -8.575 6.827
2.874 -8.521 6.823
2.842 -8.476 6.806
2.841 -8.422 6.807
2.872 -8.472 6.825
2.873 -8.417 6.827
2.913 -8.577 6.844
2.935 -8.577 6.862
2.91 -8.52 6.844
2.938 -8.529 6.861
2.974 -8.57 6.883
2.981 -8.527 6.886
2.91 -8.478 6.844
2.931 -8.47 6.861
2.909 -8.434 6.845
2.929 -8.425 6.859
2.972 -8.462 6.881
2.98 -8.432 6.886
2.819 -8.377 6.793
2.819 -8.328 6.793
2.814 -8.268 6.79
2.816 -8.223 6.792
2.84 -8.368 6.807
2.844 -8.318 6.806
2.876 -8.373 6.826
2.877 -8.327 6.826
2.84 -8.27 6.806
2.838 -8.228 6.806
2.87 -8.273 6.824
2.877 -8.227 6.828
2.913 -8.369 6.845
2.93 -8.371 6.859
2.906 -8.308 6.845
2.935 -8.332 6.86
2.973 -8.374 6.881
2.978 -8.327 6.885
2.907 -8.275 6.844
2.933 -8.274 6.861
2.908 -8.222 6.845
2.933 -8.226 6.862
2.982 -8.27 6.889
2.974 -8.214 6.884
1.547 -8.905 9.398
1.593 -8.96 9.393
1.578 -8.924 9.385
1.541 -8.868 9.377
1.542 -8.828 9.349
1.525 -8.824 9.368
1.576 -8.883 9.371
1.566 -8.836 9.362
1.489 -8.758 9.34
1.488 -8.767 9.362
1.478 -8.72 9.334
1.441 -8.614 9.293
1.467 -8.627 9.291
1.442 -8.669 9.327
1.425 -8.627 9.314
1.475 -8.676 9.318
1.468 -8.629 9.305
1.527 -8.774 9.342
1.502 -8.788 9.363
1.516 -8.726 9.336
1.62 -8.968 9.392
1.612 -8.931 9.39
1.425 -8.575 9.289
1.411 -8.525 9.276
1.406 -8.588 9.302
1.465 -8.598 9.303
1.79 -8.177 6.205
1.789 -8.123 6.206
1.793 -8.077 6.21
1.785 -8.024 6.206
1.789 -7.972 6.208
1.788 -7.923 6.207
1.789 -7.878 6.208
1.788 -7.827 6.208
1.785 -7.775 6.206
1.787 -7.719 6.209
1.787 -7.67 6.21
1.785 -7.622 6.21
1.784 -7.574 6.209
1.783 -7.525 6.209
1.785 -7.474 6.21
1.785 -7.424 6.211
1.822 -8.181 6.224
1.824 -8.127 6.228
1.855 -8.178 6.243
1.881 -8.176 6.26
1.857 -8.123 6.245
1.879 -8.121 6.259
1.825 -8.078 6.228
1.821 -8.029 6.226
1.856 -8.077 6.245
1.878 -8.072 6.259
1.858 -8.03 6.245
1.882 -8.022 6.26
1.924 -8.174 6.284
1.923 -8.124 6.284
1.973 -8.176 6.313
1.975 -8.127 6.313
1.922 -8.073 6.283
1.922 -8.026 6.284
1.951 -8.072 6.299
1.948 -8.06 6.302
1.976 -8.073 6.314
1.979 -8.024 6.315
1.827 -7.972 6.23
1.826 -7.922 6.229
1.858 -7.987 6.245
1.882 -7.976 6.262
1.855 -7.926 6.244
1.88 -7.928 6.26
1.818 -7.87 6.224
1.825 -7.823 6.228
1.858 -7.885 6.244
1.883 -7.873 6.261
1.857 -7.828 6.244
1.882 -7.819 6.262
1.924 -7.973 6.285
1.927 -7.923 6.286
1.973 -7.972 6.313
1.977 -7.924 6.314
1.927 -7.873 6.285
1.924 -7.826 6.285
1.959 -7.876 6.3
1.957 -7.804 6.298
1.95 -7.861 6.302
1.977 -7.875 6.314
1.971 -7.824 6.313
2.02 -8.178 6.34
2.045 -8.171 6.355
2.019 -8.127 6.338
2.045 -8.116 6.353
2.076 -8.172 6.371
2.077 -8.126 6.37
2.02 -8.073 6.338
2.047 -8.054 6.356
2.023 -8.028 6.34
2.044 -8.016 6.351
2.076 -8.076 6.368
2.074 -8.023 6.368
2.115 -8.181 6.392
2.118 -8.126 6.392
2.111 -8.078 6.389
2.115 -8.026 6.392
2.134 -8.181 6.405
2.137 -8.131 6.404
2.174 -8.172 6.427
2.174 -8.13 6.425
2.139 -8.069 6.406
2.137 -8.015 6.405
2.175 -8.073 6.428
2.178 -8.021 6.428
2.022 -7.974 6.338
2.046 -7.975 6.355
2.021 -7.921 6.339
2.044 -7.935 6.353
2.078 -7.976 6.37
2.074 -7.926 6.369
2.018 -7.874 6.337
2.04 -7.87 6.352
2.016 -7.822 6.338
2.043 -7.822 6.353
2.076 -7.88 6.371
2.075 -7.828 6.371
2.117 -7.977 6.393
2.116 -7.924 6.391
2.113 -7.868 6.393
2.117 -7.822 6.393
2.14 -7.971 6.406
2.141 -7.925 6.408
2.177 -7.978 6.427
2.175 -7.918 6.427
2.142 -7.875 6.408
2.141 -7.826 6.407
2.179 -7.875 6.428
2.178 -7.828 6.427
1.824 -7.773 6.228
1.822 -7.724 6.228
1.858 -7.774 6.247
1.876 -7.776 6.26
1.852 -7.728 6.245
1.879 -7.724 6.261
1.83 -7.673 6.235
1.826 -7.624 6.232
1.853 -7.695 6.249
1.878 -7.67 6.262
1.857 -7.632 6.248
1.882 -7.621 6.266
1.918 -7.775 6.282
1.925 -7.726 6.287
1.948 -7.795 6.304
1.948 -7.738 6.302
1.975 -7.771 6.315
1.973 -7.721 6.314
1.923 -7.675 6.287
1.928 -7.624 6.29
1.942 -7.68 6.302
1.944 -7.621 6.302
1.975 -7.676 6.316
1.975 -7.632 6.317
1.824 -7.573 6.233
1.825 -7.524 6.233
1.853 -7.585 6.247
1.876 -7.574 6.263
1.856 -7.517 6.248
1.878 -7.524 6.263
1.825 -7.474 6.233
1.826 -7.426 6.235
1.843 -7.43 6.251
1.854 -7.478 6.249
1.877 -7.472 6.264
1.869 -7.435 6.248
1.877 -7.422 6.263
1.922 -7.576 6.287
1.919 -7.525 6.287
1.944 -7.566 6.305
1.943 -7.528 6.303
1.972 -7.576 6.316
1.976 -7.521 6.32
1.923 -7.476 6.289
1.919 -7.424 6.287
1.944 -7.477 6.302
1.947 -7.427 6.304
1.973 -7.475 6.319
1.978 -7.427 6.32
2.018 -7.773 6.338
2.044 -7.768 6.355
2.019 -7.727 6.339
2.046 -7.723 6.356
2.071 -7.781 6.369
2.073 -7.726 6.371
2.019 -7.673 6.34
2.041 -7.672 6.354
2.018 -7.624 6.34
2.042 -7.623 6.355
2.079 -7.676 6.373
2.078 -7.623 6.374
2.111 -7.774 6.389
2.114 -7.732 6.393
2.117 -7.678 6.394
2.112 -7.626 6.394
2.136 -7.773 6.406
2.137 -7.721 6.406
2.173 -7.773 6.426
2.177 -7.726 6.428
2.137 -7.676 6.407
2.138 -7.628 6.407
2.176 -7.677 6.427
2.174 -7.627 6.426
2.014 -7.576 6.339
2.04 -7.57 6.354
2.019 -7.528 6.342
2.041 -7.516 6.355
2.072 -7.577 6.371
2.074 -7.525 6.374
2.014 -7.479 6.341
2.041 -7.471 6.355
2.015 -7.425 6.34
2.044 -7.425 6.355
2.075 -7.474 6.375
2.074 -7.428 6.374
2.112 -7.576 6.392
2.113 -7.524 6.393
2.111 -7.475 6.396
2.111 -7.422 6.394
2.137 -7.582 6.407
2.135 -7.523 6.408
2.174 -7.572 6.428
2.173 -7.523 6.427
2.134 -7.471 6.409
2.135 -7.423 6.408
2.175 -7.467 6.431
2.174 -7.425 6.43
1.784 -7.374 6.211
1.785 -7.323 6.213
1.783 -7.277 6.213
1.78 -7.24 6.211
1.787 -6.933 6.219
1.775 -6.784 6.214
1.785 -6.75 6.216
1.765 -6.605 6.208
1.826 -7.375 6.235
1.849 -7.369 6.25
1.828 -7.324 6.237
1.85 -7.385 6.25
1.874 -7.375 6.263
1.851 -7.307 6.249
1.879 -7.327 6.266
1.823 -7.275 6.236
1.846 -7.254 6.251
1.829 -7.233 6.238
1.851 -7.282 6.25
1.875 -7.277 6.264
1.857 -7.206 6.246
1.877 -7.225 6.265
1.916 -7.376 6.286
1.923 -7.327 6.29
1.944 -7.381 6.303
1.947 -7.327 6.303
1.976 -7.374 6.319
1.977 -7.33 6.32
1.919 -7.274 6.288
1.922 -7.226 6.29
1.94 -7.273 6.303
1.938 -7.221 6.302
1.977 -7.277 6.32
1.975 -7.226 6.32
1.843 -7.191 6.248
1.879 -7.18 6.265
1.893 -7.137 6.274
1.84 -7.079 6.248
1.812 -7.049 6.225
1.874 -7.055 6.264
1.919 -7.178 6.289
1.923 -7.128 6.29
1.946 -7.179 6.304
1.945 -7.128 6.305
1.977 -7.176 6.321
1.978 -7.128 6.321
1.932 -7.098 6.296
1.919 -7.036 6.289
1.947 -7.092 6.302
1.974 -7.074 6.321
1.981 -7.03 6.326
2.014 -7.373 6.341
2.04 -7.376 6.356
2.019 -7.327 6.342
2.038 -7.318 6.355
2.076 -7.375 6.377
2.076 -7.328 6.377
2.013 -7.273 6.341
2.035 -7.272 6.356
2.014 -7.228 6.342
2.038 -7.225 6.358
2.076 -7.275 6.376
2.075 -7.226 6.376
2.113 -7.375 6.395
2.11 -7.315 6.395
2.113 -7.278 6.396
2.108 -7.221 6.395
2.134 -7.372 6.409
2.134 -7.324 6.409
2.173 -7.372 6.431
2.171 -7.327 6.429
2.131 -7.271 6.408
2.135 -7.223 6.409
2.172 -7.278 6.431
2.175 -7.225 6.433
2.014 -7.178 6.342
2.04 -7.174 6.358
2.015 -7.126 6.342
2.037 -7.124 6.354
2.076 -7.177 6.377
2.073 -7.129 6.375
2.012 -7.075 6.342
2.037 -7.075 6.358
2.015 -7.028 6.343
2.039 -7.021 6.358
2.076 -7.078 6.378
2.077 -7.028 6.38
2.11 -7.179 6.395
2.111 -7.124 6.396
2.111 -7.07 6.396
2.105 -7.017 6.396
2.131 -7.173 6.409
2.134 -7.124 6.41
2.17 -7.173 6.43
2.176 -7.126 6.433
2.131 -7.073 6.41
2.129 -7.022 6.41
2.172 -7.075 6.431
2.174 -7.026 6.434
1.818 -6.933 6.237
1.847 -6.929 6.255
1.875 -6.917 6.269
1.9 -6.895 6.281
1.995 -6.99 6.34
1.951 -6.931 6.316
1.92 -6.897 6.294
1.976 -6.879 6.325
1.82 -6.762 6.239
1.862 -6.765 6.265
1.887 -6.741 6.275
1.82 -6.615 6.243
1.903 -6.724 6.283
1.933 -6.761 6.307
1.958 -6.774 6.322
1.985 -6.726 6.333
1.954 -6.687 6.308
1.965 -6.61 6.328
2.019 -6.988 6.347
2.04 -6.972 6.36
2.076 -6.972 6.379
2.075 -6.924 6.381
2.027 -6.88 6.356
2.082 -6.884 6.385
2.104 -6.977 6.396
2.11 -6.926 6.397
2.104 -6.875 6.398
2.098 -6.876 6.401
2.129 -6.974 6.411
2.131 -6.926 6.412
2.175 -6.977 6.436
2.198 -6.98 6.451
2.176 -6.925 6.436
2.125 -6.874 6.41
2.136 -6.834 6.416
2.175 -6.874 6.436
2.172 -6.825 6.435
2.198 -6.801 6.455
2.009 -6.737 6.348
2.028 -6.733 6.36
2.075 -6.717 6.385
2.035 -6.681 6.356
2.098 -6.693 6.396
2.131 -6.737 6.421
2.181 -6.785 6.441
2.196 -6.779 6.453
2.134 -6.675 6.415
2.164 -6.672 6.432
2.197 -6.679 6.453
2.205 -8.176 6.446
2.231 -8.18 6.46
2.209 -8.121 6.444
2.235 -8.129 6.462
2.272 -8.176 6.482
2.273 -8.129 6.482
2.207 -8.061 6.445
2.23 -8.072 6.458
2.214 -8.033 6.448
2.235 -8.022 6.461
2.273 -8.078 6.484
2.275 -8.028 6.484
2.302 -8.178 6.497
2.303 -8.132 6.498
2.326 -8.174 6.513
2.32 -8.118 6.509
2.37 -8.179 6.539
2.396 -8.168 6.552
2.366 -8.127 6.535
2.392 -8.131 6.553
2.333 -8.074 6.517
2.33 -8.03 6.514
2.373 -8.083 6.541
2.394 -8.082 6.552
2.372 -8.026 6.537
2.213 -7.976 6.446
2.232 -7.973 6.459
2.21 -7.93 6.444
2.237 -7.928 6.462
2.275 -7.978 6.484
2.273 -7.927 6.482
2.297 -7.923 6.502
2.216 -7.869 6.447
2.229 -7.878 6.459
2.208 -7.823 6.444
2.231 -7.824 6.46
2.278 -7.877 6.484
2.277 -7.826 6.483
2.291 -7.856 6.501
2.302 -7.993 6.499
2.304 -7.933 6.498
2.323 -7.968 6.513
2.33 -7.924 6.515
2.366 -7.976 6.536
2.39 -7.983 6.551
2.372 -7.93 6.539
2.393 -7.916 6.553
2.301 -7.868 6.497
2.323 -7.873 6.511
2.326 -7.822 6.513
2.371 -7.873 6.537
2.4 -7.882 6.553
2.368 -7.822 6.537
2.39 -7.813 6.551
2.427 -8.171 6.571
2.425 -8.121 6.569
2.469 -8.173 6.595
2.461 -8.122 6.591
2.428 -8.077 6.572
2.422 -8.026 6.567
2.467 -8.069 6.593
2.467 -8.028 6.593
2.426 -7.973 6.57
2.426 -7.929 6.57
2.47 -7.981 6.592
2.462 -7.923 6.59
2.421 -7.872 6.568
2.422 -7.823 6.568
2.466 -7.877 6.593
2.465 -7.825 6.59
2.481 -8.182 6.605
2.492 -8.128 6.608
2.487 -8.075 6.608
2.488 -8.026 6.606
2.523 -8.169 6.627
2.523 -8.122 6.628
2.558 -8.169 6.647
2.578 -8.178 6.659
2.554 -8.117 6.646
2.581 -8.124 6.661
2.524 -8.073 6.629
2.528 -8.027 6.63
2.554 -8.069 6.644
2.58 -8.069 6.661
2.555 -8.023 6.645
2.582 -8.026 6.661
2.486 -7.978 6.607
2.489 -7.932 6.607
2.489 -7.871 6.605
2.49 -7.822 6.609
2.527 -7.975 6.629
2.527 -7.922 6.627
2.563 -7.958 6.648
2.582 -7.976 6.66
2.558 -7.925 6.643
2.579 -7.926 6.659
2.52 -7.875 6.624
2.53 -7.826 6.63
2.557 -7.879 6.645
2.585 -7.873 6.659
2.559 -7.827 6.647
2.582 -7.822 6.66
2.209 -7.775 6.446
2.231 -7.773 6.46
2.208 -7.726 6.446
2.229 -7.722 6.459
2.277 -7.773 6.485
2.274 -7.72 6.484
2.299 -7.728 6.5
2.207 -7.68 6.445
2.232 -7.673 6.46
2.208 -7.623 6.445
2.231 -7.625 6.459
2.274 -7.676 6.483
2.273 -7.626 6.483
2.295 -7.699 6.5
2.305 -7.763 6.5
2.302 -7.738 6.498
2.324 -7.776 6.511
2.328 -7.724 6.515
2.368 -7.778 6.536
2.393 -7.774 6.552
2.368 -7.726 6.537
2.396 -7.729 6.553
2.301 -7.666 6.498
2.329 -7.676 6.516
2.322 -7.624 6.512
2.372 -7.674 6.54
2.396 -7.686 6.554
2.369 -7.623 6.537
2.393 -7.627 6.552
2.208 -7.58 6.445
2.231 -7.573 6.46
2.206 -7.525 6.444
2.229 -7.522 6.461
2.272 -7.575 6.484
2.275 -7.529 6.486
2.207 -7.476 6.447
2.23 -7.473 6.462
2.205 -7.419 6.446
2.228 -7.426 6.461
2.276 -7.477 6.486
2.272 -7.426 6.485
2.306 -7.567 6.499
2.3 -7.534 6.499
2.325 -7.576 6.514
2.324 -7.531 6.513
2.371 -7.571 6.54
2.395 -7.567 6.554
2.372 -7.525 6.539
2.398 -7.519 6.554
2.305 -7.456 6.498
2.325 -7.479 6.514
2.327 -7.424 6.516
2.37 -7.48 6.539
2.398 -7.477 6.555
2.376 -7.429 6.541
2.394 -7.431 6.552
2.425 -7.774 6.57
2.428 -7.724 6.572
2.464 -7.779 6.592
2.466 -7.723 6.594
2.424 -7.674 6.57
2.428 -7.624 6.572
2.465 -7.675 6.592
2.467 -7.624 6.593
2.425 -7.574 6.57
2.425 -7.528 6.57
2.462 -7.573 6.591
2.466 -7.519 6.592
2.427 -7.472 6.57
2.425 -7.424 6.571
2.466 -7.474 6.593
2.462 -7.424 6.591
2.489 -7.771 6.606
2.49 -7.723 6.606
2.488 -7.674 6.607
2.491 -7.627 6.607
2.524 -7.773 6.626
2.517 -7.728 6.621
2.56 -7.782 6.645
2.577 -7.773 6.658
2.557 -7.721 6.644
2.585 -7.727 6.662
2.526 -7.676 6.628
2.522 -7.629 6.626
2.558 -7.668 6.646
2.58 -7.679 6.661
2.556 -7.621 6.645
2.583 -7.63 6.663
2.489 -7.576 6.607
2.486 -7.523 6.607
2.486 -7.472 6.606
2.488 -7.419 6.607
2.524 -7.577 6.626
2.524 -7.522 6.627
2.559 -7.573 6.644
2.585 -7.578 6.66
2.558 -7.529 6.645
2.576 -7.519 6.658
2.525 -7.474 6.626
2.523 -7.423 6.628
2.555 -7.483 6.643
2.582 -7.474 6.66
2.56 -7.431 6.648
2.581 -7.418 6.66
2.617 -8.176 6.681
2.631 -8.119 6.688
2.652 -8.176 6.697
2.648 -8.183 6.703
2.674 -8.17 6.714
2.679 -8.12 6.716
2.623 -8.067 6.685
2.624 -8.022 6.685
2.652 -8.033 6.7
2.65 -8.093 6.701
2.676 -8.071 6.714
2.68 -8.029 6.716
2.721 -8.169 6.74
2.742 -8.17 6.752
2.717 -8.134 6.735
2.745 -8.128 6.754
2.776 -8.171 6.771
2.771 -8.127 6.767
2.726 -8.08 6.74
2.72 -8.025 6.739
2.743 -8.016 6.753
2.776 -8.075 6.768
2.775 -8.021 6.77
2.621 -7.978 6.682
2.623 -7.925 6.685
2.656 -7.977 6.697
2.675 -7.976 6.714
2.678 -7.923 6.715
2.625 -7.88 6.685
2.621 -7.825 6.682
2.65 -7.894 6.7
2.673 -7.872 6.713
2.681 -7.826 6.717
2.721 -7.973 6.737
2.747 -7.97 6.754
2.724 -7.927 6.741
2.778 -7.977 6.771
2.771 -7.926 6.768
2.717 -7.877 6.737
2.741 -7.878 6.753
2.726 -7.821 6.743
2.746 -7.837 6.755
2.773 -7.882 6.771
2.776 -7.826 6.77
2.815 -8.175 6.794
2.815 -8.13 6.792
2.814 -8.079 6.791
2.812 -8.036 6.791
2.839 -8.178 6.808
2.83 -8.123 6.805
2.879 -8.17 6.829
2.873 -8.121 6.828
2.84 -8.078 6.806
2.836 -8.02 6.808
2.871 -8.074 6.828
2.876 -8.033 6.83
2.907 -8.175 6.843
2.93 -8.174 6.859
2.908 -8.114 6.847
2.925 -8.124 6.859
2.974 -8.176 6.883
2.975 -8.123 6.886
2.996 -8.112 6.902
2.909 -8.084 6.845
2.928 -8.077 6.861
2.906 -8.027 6.843
2.931 -8.024 6.863
2.978 -8.072 6.887
2.972 -8.034 6.884
2.995 -8.019 6.903
2.81 -7.976 6.791
2.82 -7.929 6.795
2.813 -7.88 6.793
2.817 -7.826 6.795
2.837 -7.978 6.807
2.838 -7.933 6.809
2.872 -7.985 6.827
2.873 -7.924 6.827
2.836 -7.88 6.808
2.835 -7.824 6.806
2.872 -7.871 6.827
2.874 -7.825 6.827
2.904 -7.979 6.845
2.933 -7.978 6.862
2.908 -7.928 6.847
2.929 -7.921 6.859
2.97 -7.975 6.884
2.97 -7.93 6.883
2.997 -7.975 6.901
2.992 -7.921 6.902
2.907 -7.874 6.846
2.931 -7.873 6.863
2.908 -7.822 6.845
2.93 -7.823 6.86
2.972 -7.875 6.885
2.976 -7.824 6.887
2.622 -7.771 6.684
2.628 -7.728 6.686
2.65 -7.769 6.697
2.656 -7.707 6.697
2.674 -7.775 6.713
2.677 -7.726 6.715
2.624 -7.671 6.683
2.627 -7.62 6.686
2.651 -7.661 6.7
2.656 -7.6 6.7
2.647 -7.637 6.702
2.673 -7.673 6.712
2.677 -7.621 6.714
2.718 -7.778 6.737
2.745 -7.781 6.754
2.72 -7.73 6.74
2.745 -7.728 6.754
2.774 -7.767 6.77
2.777 -7.723 6.771
2.72 -7.675 6.738
2.744 -7.67 6.754
2.719 -7.622 6.739
2.742 -7.622 6.753
2.771 -7.676 6.768
2.775 -7.625 6.771
2.621 -7.576 6.682
2.622 -7.526 6.681
2.65 -7.565 6.699
2.652 -7.519 6.698
2.675 -7.575 6.714
2.676 -7.522 6.716
2.616 -7.478 6.682
2.626 -7.427 6.685
2.65 -7.494 6.7
2.645 -7.476 6.701
2.673 -7.474 6.713
2.681 -7.425 6.718
2.724 -7.577 6.741
2.745 -7.582 6.753
2.716 -7.524 6.738
2.745 -7.527 6.756
2.77 -7.575 6.769
2.771 -7.517 6.771
2.723 -7.474 6.741
2.746 -7.476 6.757
2.718 -7.423 6.739
2.746 -7.424 6.755
2.78 -7.477 6.776
2.777 -7.427 6.774
2.811 -7.777 6.792
2.814 -7.731 6.791
2.81 -7.68 6.789
2.807 -7.62 6.79
2.838 -7.771 6.806
2.83 -7.725 6.804
2.872 -7.778 6.825
2.873 -7.722 6.827
2.835 -7.677 6.805
2.837 -7.62 6.807
2.874 -7.677 6.828
2.871 -7.624 6.829
2.906 -7.769 6.845
2.938 -7.772 6.863
2.906 -7.72 6.847
2.929 -7.721 6.861
2.978 -7.775 6.887
2.977 -7.724 6.888
2.997 -7.726 6.901
2.905 -7.664 6.847
2.931 -7.681 6.86
2.903 -7.628 6.846
2.929 -7.621 6.862
2.971 -7.678 6.884
2.969 -7.626 6.885
2.993 -7.657 6.901
2.811 -7.576 6.792
2.813 -7.53 6.794
2.81 -7.477 6.794
2.814 -7.422 6.795
2.843 -7.58 6.811
2.837 -7.522 6.809
2.88 -7.575 6.834
2.876 -7.524 6.831
2.837 -7.471 6.809
2.832 -7.423 6.806
2.872 -7.474 6.83
2.878 -7.428 6.832
2.907 -7.577 6.848
2.928 -7.576 6.862
2.903 -7.506 6.848
2.925 -7.52 6.861
2.974 -7.575 6.887
2.973 -7.527 6.887
2.995 -7.583 6.902
2.995 -7.504 6.9
2.906 -7.48 6.846
2.928 -7.475 6.862
2.911 -7.42 6.849
2.928 -7.423 6.861
2.969 -7.474 6.886
2.971 -7.422 6.885
2.997 -7.456 6.903
2.998 -7.425 6.902
2.206 -7.374 6.445
2.225 -7.377 6.461
2.203 -7.326 6.446
2.226 -7.323 6.462
2.272 -7.378 6.485
2.275 -7.325 6.487
2.298 -7.372 6.5
2.204 -7.277 6.445
2.229 -7.274 6.462
2.204 -7.227 6.448
2.229 -7.226 6.462
2.272 -7.275 6.487
2.275 -7.226 6.488
2.3 -7.294 6.503
2.295 -7.216 6.502
2.326 -7.376 6.515
2.322 -7.326 6.515
2.365 -7.377 6.538
2.393 -7.382 6.553
2.367 -7.327 6.539
2.391 -7.324 6.553
2.327 -7.274 6.518
2.329 -7.226 6.519
2.371 -7.275 6.54
2.391 -7.273 6.554
2.369 -7.229 6.54
2.391 -7.233 6.555
2.206 -7.192 6.447
2.228 -7.175 6.463
2.206 -7.109 6.447
2.227 -7.124 6.463
2.271 -7.174 6.486
2.271 -7.124 6.488
2.294 -7.174 6.503
2.297 -7.123 6.502
2.204 -7.082 6.447
2.23 -7.075 6.464
2.202 -7.047 6.449
2.226 -7.024 6.464
2.273 -7.076 6.49
2.273 -7.022 6.489
2.295 -7.074 6.502
2.298 -7.026 6.503
2.327 -7.175 6.518
2.327 -7.123 6.518
2.369 -7.18 6.541
2.389 -7.17 6.553
2.369 -7.126 6.542
2.392 -7.125 6.556
2.329 -7.074 6.52
2.328 -7.028 6.519
2.366 -7.077 6.541
2.388 -7.083 6.554
2.363 -7.026 6.54
2.39 -7.026 6.556
2.422 -7.375 6.57
2.421 -7.323 6.569
2.461 -7.372 6.592
2.459 -7.328 6.59
2.424 -7.277 6.572
2.426 -7.227 6.574
2.461 -7.276 6.592
2.458 -7.227 6.591
2.423 -7.175 6.573
2.424 -7.127 6.573
2.459 -7.179 6.593
2.459 -7.124 6.593
2.426 -7.077 6.575
2.42 -7.023 6.571
2.46 -7.071 6.594
2.458 -7.029 6.593
2.485 -7.373 6.605
2.49 -7.325 6.609
2.487 -7.281 6.608
2.486 -7.231 6.609
2.522 -7.374 6.626
2.527 -7.329 6.63
2.554 -7.38 6.645
2.582 -7.371 6.661
2.555 -7.327 6.646
2.576 -7.317 6.66
2.524 -7.272 6.63
2.526 -7.223 6.632
2.554 -7.268 6.645
2.58 -7.277 6.66
2.557 -7.246 6.647
2.578 -7.225 6.662
2.483 -7.176 6.606
2.486 -7.126 6.61
2.484 -7.076 6.609
2.486 -7.028 6.609
2.524 -7.176 6.631
2.524 -7.123 6.631
2.551 -7.161 6.642
2.575 -7.176 6.661
2.552 -7.13 6.648
2.576 -7.121 6.662
2.526 -7.079 6.632
2.521 -7.027 6.632
2.555 -7.077 6.648
2.578 -7.074 6.664
2.553 -7.009 6.649
2.578 -7.026 6.663
2.202 -6.976 6.45
2.23 -6.976 6.466
2.207 -6.908 6.45
2.225 -6.924 6.463
2.273 -6.975 6.489
2.272 -6.926 6.488
2.295 -6.984 6.503
2.294 -6.934 6.502
2.224 -6.871 6.464
2.202 -6.824 6.449
2.226 -6.826 6.465
2.269 -6.874 6.488
2.273 -6.821 6.49
2.296 -6.882 6.503
2.294 -6.816 6.505
2.327 -6.973 6.52
2.325 -6.926 6.519
2.368 -6.972 6.543
2.394 -6.97 6.557
2.366 -6.925 6.542
2.389 -6.924 6.555
2.323 -6.875 6.518
2.329 -6.825 6.524
2.362 -6.876 6.54
2.391 -6.878 6.558
2.366 -6.825 6.544
2.388 -6.825 6.556
2.227 -6.771 6.466
2.227 -6.727 6.468
2.269 -6.771 6.489
2.27 -6.725 6.49
2.294 -6.766 6.505
2.292 -6.72 6.505
2.237 -6.69 6.475
2.272 -6.677 6.493
2.25 -6.649 6.48
2.291 -6.673 6.506
2.293 -6.633 6.506
2.329 -6.778 6.522
2.327 -6.726 6.523
2.362 -6.775 6.543
2.389 -6.774 6.558
2.364 -6.724 6.545
2.389 -6.727 6.558
2.328 -6.674 6.523
2.324 -6.625 6.524
2.363 -6.677 6.542
2.383 -6.675 6.557
2.36 -6.631 6.543
2.387 -6.628 6.557
2.425 -6.976 6.576
2.425 -6.925 6.575
2.458 -6.971 6.592
2.46 -6.933 6.594
2.422 -6.875 6.574
2.423 -6.824 6.576
2.458 -6.88 6.593
2.461 -6.83 6.597
2.429 -6.779 6.58
2.426 -6.724 6.579
2.459 -6.774 6.596
2.46 -6.725 6.597
2.421 -6.673 6.578
2.424 -6.625 6.58
2.457 -6.674 6.596
2.453 -6.621 6.594
2.479 -6.973 6.606
2.487 -6.923 6.61
2.485 -6.874 6.611
2.483 -6.824 6.61
2.522 -6.974 6.63
2.545 -6.997 6.65
2.525 -6.923 6.633
2.563 -6.986 6.649
2.579 -6.974 6.664
2.551 -6.911 6.648
2.577 -6.921 6.665
2.528 -6.877 6.635
2.526 -6.828 6.634
2.572 -6.877 6.663
2.557 -6.817 6.647
2.573 -6.824 6.662
2.484 -6.772 6.612
2.48 -6.722 6.61
2.481 -6.677 6.611
2.48 -6.623 6.611
2.524 -6.773 6.634
2.549 -6.764 6.651
2.522 -6.723 6.633
2.58 -6.775 6.665
2.551 -6.739 6.648
2.576 -6.725 6.663
2.523 -6.671 6.633
2.527 -6.623 6.637
2.551 -6.671 6.648
2.573 -6.675 6.661
2.576 -6.624 6.667
2.623 -7.374 6.685
2.621 -7.327 6.683
2.651 -7.372 6.697
2.643 -7.374 6.704
2.649 -7.315 6.703
2.675 -7.374 6.715
2.675 -7.329 6.716
2.625 -7.276 6.687
2.622 -7.224 6.686
2.648 -7.284 6.702
2.644 -7.236 6.702
2.677 -7.275 6.716
2.673 -7.225 6.716
2.722 -7.375 6.741
2.737 -7.373 6.752
2.719 -7.325 6.74
2.741 -7.333 6.754
2.771 -7.374 6.77
2.771 -7.318 6.77
2.715 -7.273 6.739
2.746 -7.271 6.757
2.72 -7.227 6.742
2.742 -7.231 6.754
2.786 -7.277 6.778
2.772 -7.229 6.77
2.622 -7.18 6.687
2.622 -7.126 6.686
2.652 -7.159 6.699
2.649 -7.179 6.703
2.649 -7.131 6.703
2.677 -7.177 6.718
2.681 -7.127 6.719
2.621 -7.069 6.689
2.622 -7.024 6.686
2.645 -7.034 6.701
2.673 -7.073 6.716
2.676 -7.021 6.724
2.714 -7.179 6.739
2.744 -7.173 6.756
2.719 -7.125 6.739
2.741 -7.124 6.753
2.771 -7.177 6.748
2.779 -7.175 6.775
2.772 -7.12 6.772
2.72 -7.077 6.739
2.742 -7.087 6.754
2.716 -7.008 6.737
2.721 -7.029 6.755
2.756 -7.061 6.744
2.775 -7.074 6.772
2.782 -7.025 6.778
2.81 -7.372 6.792
2.812 -7.327 6.793
2.81 -7.267 6.79
2.813 -7.224 6.792
2.836 -7.372 6.808
2.837 -7.321 6.807
2.876 -7.372 6.831
2.875 -7.319 6.829
2.834 -7.279 6.806
2.836 -7.229 6.807
2.871 -7.273 6.828
2.871 -7.226 6.827
2.91 -7.363 6.849
2.928 -7.371 6.861
2.904 -7.328 6.846
2.928 -7.321 6.862
2.976 -7.37 6.887
2.972 -7.321 6.886
2.995 -7.386 6.901
2.999 -7.337 6.905
2.905 -7.289 6.847
2.932 -7.28 6.863
2.903 -7.231 6.847
2.93 -7.224 6.862
2.975 -7.277 6.887
2.979 -7.223 6.889
2.997 -7.291 6.9
2.809 -7.169 6.792
2.814 -7.127 6.793
2.807 -7.076 6.792
2.811 -7.025 6.796
2.838 -7.173 6.809
2.836 -7.122 6.808
2.875 -7.173 6.831
2.878 -7.127 6.832
2.832 -7.068 6.807
2.835 -7.021 6.809
2.868 -7.072 6.826
2.871 -7.026 6.83
2.908 -7.172 6.847
2.929 -7.173 6.861
2.91 -7.131 6.85
2.926 -7.124 6.862
2.969 -7.173 6.882
2.977 -7.129 6.887
2.998 -7.151 6.901
2.997 -7.111 6.9
2.905 -7.081 6.846
2.931 -7.075 6.863
2.905 -7.029 6.847
2.927 -7.025 6.863
2.97 -7.076 6.886
2.977 -7.025 6.889
2.995 -7.061 6.902
2.626 -6.977 6.69
2.619 -6.922 6.689
2.66 -6.959 6.7
2.633 -6.936 6.701
2.671 -6.972 6.725
2.687 -6.965 6.763
2.678 -6.936 6.718
2.618 -6.872 6.687
2.624 -6.825 6.689
2.642 -6.896 6.703
2.643 -6.825 6.702
2.671 -6.873 6.717
2.676 -6.824 6.72
2.724 -6.965 6.735
2.719 -6.98 6.766
2.715 -6.928 6.738
2.72 -6.932 6.757
2.779 -6.972 6.782
2.772 -6.923 6.774
2.714 -6.874 6.741
2.739 -6.874 6.757
2.717 -6.824 6.743
2.734 -6.819 6.755
2.779 -6.875 6.779
2.768 -6.826 6.773
2.759 -6.944 6.803
2.62 -6.773 6.688
2.617 -6.727 6.687
2.646 -6.764 6.703
2.641 -6.71 6.703
2.675 -6.778 6.719
2.677 -6.728 6.721
2.617 -6.675 6.688
2.616 -6.628 6.689
2.645 -6.668 6.706
2.641 -6.629 6.705
2.679 -6.679 6.725
2.675 -6.627 6.723
2.712 -6.778 6.742
2.741 -6.77 6.759
2.712 -6.727 6.743
2.737 -6.729 6.756
2.778 -6.778 6.778
2.772 -6.729 6.777
2.718 -6.675 6.744
2.734 -6.675 6.756
2.715 -6.619 6.744
2.74 -6.624 6.758
2.772 -6.675 6.777
2.774 -6.625 6.778
2.806 -6.977 6.794
2.81 -6.925 6.795
2.811 -6.876 6.796
2.806 -6.826 6.794
2.832 -6.975 6.807
2.834 -6.924 6.809
2.873 -6.975 6.83
2.878 -6.927 6.834
2.897 -6.902 6.851
2.833 -6.876 6.811
2.834 -6.826 6.811
2.873 -6.874 6.832
2.876 -6.827 6.835
2.904 -6.969 6.849
2.929 -6.976 6.864
2.902 -6.906 6.844
2.923 -6.924 6.86
2.977 -6.975 6.889
2.972 -6.921 6.886
2.998 -6.99 6.902
2.997 -6.944 6.901
2.901 -6.877 6.846
2.925 -6.874 6.862
2.903 -6.813 6.848
2.927 -6.829 6.862
2.973 -6.875 6.887
2.973 -6.828 6.888
2.998 -6.813 6.902
2.808 -6.775 6.797
2.802 -6.723 6.793
2.804 -6.68 6.796
2.803 -6.619 6.794
2.83 -6.772 6.809
2.827 -6.722 6.809
2.874 -6.777 6.833
2.876 -6.729 6.836
2.896 -6.709 6.85
2.832 -6.673 6.81
2.832 -6.625 6.81
2.874 -6.675 6.834
2.875 -6.625 6.836
2.902 -6.773 6.847
2.925 -6.776 6.863
2.931 -6.726 6.866
2.973 -6.775 6.889
2.972 -6.721 6.89
2.996 -6.724 6.902
2.923 -6.676 6.863
2.927 -6.623 6.865
2.97 -6.673 6.888
2.969 -6.628 6.888
2.988 -6.671 6.902
2.996 -6.618 6.906
2.993 -7.011 9.18
2.898 -7.057 9.397
2.888 -7.019 9.383
2.939 -7.111 9.39
2.985 -7.171 9.382
2.985 -7.123 9.329
2.967 -7.131 9.372
2.941 -7.015 9.284
2.989 -7.062 9.244
2.982 -7.072 9.279
2.981 -7.025 9.226
2.963 -7.029 9.269
2.941 -7.062 9.343
2.93 -7.076 9.376
2.927 -7.025 9.324
2.913 -7.036 9.368
2.965 -7.079 9.32
2.955 -7.096 9.358
2.961 -7.047 9.302
2.993 -6.815 8.979
2.997 -6.654 8.788
2.997 -6.607 8.727
2.98 -6.618 8.78
2.843 -6.604 8.989
2.893 -6.665 8.982
2.888 -6.615 8.934
2.874 -6.623 8.974
2.998 -6.755 8.891
2.998 -6.71 8.844
2.988 -6.717 8.876
2.943 -6.759 8.989
2.937 -6.709 8.939
2.934 -6.722 8.978
2.989 -6.767 8.931
2.972 -6.778 8.973
2.97 -6.727 8.921
2.957 -6.734 8.958
2.945 -6.656 8.885
2.937 -6.609 8.842
2.926 -6.618 8.877
2.984 -6.668 8.827
2.967 -6.674 8.872
2.965 -6.629 8.823
2.96 -6.645 8.864
2.931 -6.674 8.928
2.913 -6.678 8.972
2.914 -6.636 8.921
2.959 -6.687 8.908
2.749 -6.812 9.397
2.79 -6.864 9.384
2.786 -6.815 9.333
2.771 -6.827 9.374
2.795 -6.71 9.184
2.794 -6.614 9.088
2.746 -6.613 9.178
2.795 -6.651 9.142
2.788 -6.673 9.179
2.781 -6.623 9.128
2.761 -6.626 9.173
2.693 -6.718 9.386
2.696 -6.605 9.239
2.691 -6.62 9.278
2.649 -6.656 9.383
2.647 -6.605 9.33
2.636 -6.619 9.376
2.686 -6.664 9.334
2.674 -6.674 9.376
2.676 -6.629 9.322
2.656 -6.633 9.365
2.745 -6.71 9.281
2.786 -6.768 9.28
2.784 -6.721 9.23
2.767 -6.728 9.272
2.741 -6.758 9.34
2.733 -6.773 9.378
2.73 -6.718 9.327
2.711 -6.728 9.366
2.77 -6.776 9.32
2.759 -6.792 9.365
2.758 -6.745 9.311
2.738 -6.658 9.238
2.73 -6.675 9.277
2.732 -6.626 9.221
2.713 -6.634 9.268
2.767 -6.682 9.222
2.754 -6.693 9.264
2.754 -6.65 9.219
2.714 -6.684 9.315
2.706 -6.696 9.37
2.895 -6.862 9.193
2.892 -6.809 9.138
2.878 -6.822 9.179
2.991 -6.911 9.086
2.933 -6.916 9.186
2.991 -6.958 9.137
2.98 -6.973 9.173
2.976 -6.922 9.125
2.96 -6.93 9.167
2.948 -6.864 9.098
2.944 -6.806 9.043
2.933 -6.819 9.077
2.989 -6.863 9.031
2.973 -6.871 9.075
2.975 -6.83 9.023
2.959 -6.834 9.058
2.935 -6.867 9.132
2.921 -6.878 9.173
2.918 -6.828 9.121
2.904 -6.846 9.165
2.96 -6.89 9.119
2.898 -6.912 9.244
2.889 -6.925 9.279
2.839 -6.964 9.387
2.844 -6.914 9.336
2.829 -6.924 9.378
2.887 -6.969 9.328
2.87 -6.977 9.369
2.868 -6.928 9.318
2.862 -6.944 9.356
2.84 -6.862 9.292
2.837 -6.809 9.237
2.826 -6.824 9.279
2.882 -6.869 9.23
2.867 -6.879 9.269
2.864 -6.828 9.221
2.856 -6.843 9.258
2.83 -6.876 9.327
2.81 -6.88 9.368
2.81 -6.832 9.319
2.854 -6.893 9.304
2.936 -6.967 9.236
2.924 -6.976 9.275
2.922 -6.925 9.223
2.909 -6.933 9.261
2.96 -6.981 9.219
2.909 -6.986 9.316
2.91 -6.891 9.216
2.842 -6.704 9.092
2.893 -6.765 9.091
2.89 -6.713 9.042
2.878 -6.724 9.074
2.848 -6.751 9.146
2.839 -6.762 9.177
2.836 -6.719 9.136
2.823 -6.727 9.172
2.878 -6.773 9.126
2.863 -6.784 9.173
2.864 -6.734 9.116
2.849 -6.659 9.034
2.839 -6.666 9.079
2.836 -6.621 9.032
2.819 -6.624 9.072
2.88 -6.677 9.021
2.858 -6.682 9.064
2.861 -6.636 9.012
2.823 -6.677 9.123
2.807 -6.685 9.162
2.806 -6.639 9.115
2.856 -6.697 9.102
2.935 -6.774 9.029
2.915 -6.777 9.073
2.913 -6.731 9.02
2.901 -6.739 9.051
2.96 -6.792 9.011
2.904 -6.794 9.106
2.825 -6.773 9.225
2.809 -6.782 9.264
2.807 -6.741 9.213
2.803 -6.789 9.301
0.141 -9.771 9.407
0.138 -9.723 9.409
0.177 -9.776 9.43
0.181 -9.729 9.433
0.131 -9.671 9.405
0.138 -9.625 9.41
0.175 -9.675 9.429
0.174 -9.621 9.428
0.14 -9.566 9.411
0.136 -9.529 9.412
0.177 -9.575 9.431
0.173 -9.527 9.428
0.135 -9.476 9.407
0.131 -9.429 9.407
0.178 -9.475 9.432
0.172 -9.426 9.43
0.136 -9.379 9.406
0.139 -9.328 9.408
0.176 -9.376 9.431
0.171 -9.325 9.424
0.14 -9.28 9.407
0.149 -9.215 9.409
0.177 -9.268 9.427
0.178 -9.225 9.43
0.134 -9.179 9.403
0.138 -9.124 9.406
0.174 -9.178 9.427
0.173 -9.126 9.426
0.138 -9.084 9.409
0.136 -9.027 9.405
0.174 -9.077 9.427
0.174 -9.03 9.428
0.211 -9.784 9.448
0.231 -9.77 9.46
0.206 -9.714 9.447
0.229 -9.726 9.46
0.272 -9.777 9.483
0.278 -9.721 9.486
0.204 -9.656 9.444
0.232 -9.682 9.461
0.211 -9.626 9.447
0.232 -9.624 9.461
0.273 -9.674 9.484
0.274 -9.623 9.485
0.303 -9.742 9.497
0.316 -9.773 9.507
0.327 -9.729 9.512
0.353 -9.757 9.523
0.368 -9.722 9.536
0.4 -9.735 9.553
0.303 -9.628 9.498
0.327 -9.679 9.515
0.332 -9.624 9.516
0.37 -9.679 9.539
0.397 -9.69 9.555
0.37 -9.636 9.536
0.391 -9.639 9.551
0.202 -9.55 9.444
0.23 -9.579 9.461
0.208 -9.542 9.448
0.231 -9.523 9.461
0.277 -9.573 9.486
0.273 -9.529 9.487
0.296 -9.524 9.503
0.205 -9.473 9.449
0.227 -9.473 9.459
0.223 -9.429 9.458
0.262 -9.474 9.479
0.268 -9.424 9.483
0.294 -9.495 9.501
0.298 -9.437 9.506
0.325 -9.578 9.514
0.325 -9.527 9.516
0.376 -9.574 9.541
0.396 -9.559 9.553
0.368 -9.527 9.538
0.39 -9.518 9.551
0.337 -9.475 9.523
0.321 -9.423 9.512
0.37 -9.477 9.541
0.394 -9.475 9.555
0.366 -9.423 9.539
0.391 -9.423 9.554
0.415 -9.715 9.565
0.423 -9.667 9.566
0.403 -9.649 9.55
0.43 -9.618 9.573
0.465 -9.667 9.592
0.457 -9.622 9.588
0.488 -9.671 9.607
0.49 -9.624 9.608
0.503 -9.658 9.616
0.518 -9.618 9.625
0.426 -9.575 9.572
0.429 -9.526 9.573
0.465 -9.571 9.592
0.467 -9.517 9.593
0.426 -9.474 9.572
0.425 -9.426 9.572
0.467 -9.478 9.596
0.459 -9.423 9.592
0.486 -9.566 9.606
0.493 -9.523 9.608
0.49 -9.478 9.609
0.487 -9.424 9.608
0.528 -9.571 9.628
0.525 -9.521 9.627
0.562 -9.586 9.647
0.581 -9.57 9.661
0.555 -9.537 9.644
0.58 -9.52 9.66
0.518 -9.469 9.623
0.53 -9.428 9.632
0.555 -9.472 9.645
0.587 -9.472 9.664
0.56 -9.429 9.647
0.576 -9.418 9.658
0.211 -9.375 9.447
0.239 -9.369 9.466
0.232 -9.315 9.461
0.277 -9.376 9.489
0.275 -9.33 9.488
0.299 -9.37 9.503
0.3 -9.307 9.503
0.204 -9.273 9.444
0.231 -9.269 9.458
0.209 -9.222 9.444
0.234 -9.224 9.46
0.27 -9.278 9.483
0.271 -9.222 9.48
0.325 -9.373 9.516
0.329 -9.329 9.519
0.364 -9.376 9.54
0.391 -9.375 9.555
0.37 -9.322 9.54
0.398 -9.328 9.558
0.301 -9.29 9.499
0.3 -9.223 9.494
0.325 -9.275 9.515
0.326 -9.225 9.515
0.37 -9.283 9.541
0.393 -9.274 9.554
0.369 -9.229 9.54
0.393 -9.221 9.556
0.211 -9.175 9.447
0.236 -9.179 9.461
0.211 -9.121 9.447
0.236 -9.127 9.461
0.278 -9.175 9.486
0.276 -9.123 9.483
0.207 -9.07 9.446
0.23 -9.074 9.457
0.205 -9.019 9.443
0.231 -9.026 9.46
0.273 -9.08 9.483
0.272 -9.026 9.481
0.31 -9.144 9.499
0.324 -9.176 9.514
0.326 -9.125 9.514
0.371 -9.172 9.54
0.385 -9.18 9.551
0.373 -9.127 9.54
0.386 -9.123 9.554
0.303 -9.005 9.499
0.326 -9.078 9.513
0.329 -9.028 9.513
0.37 -9.073 9.538
0.396 -9.078 9.553
0.372 -9.02 9.537
0.393 -9.039 9.554
0.423 -9.373 9.572
0.426 -9.326 9.574
0.461 -9.382 9.592
0.46 -9.329 9.595
0.422 -9.277 9.573
0.427 -9.224 9.575
0.458 -9.273 9.593
0.461 -9.219 9.592
0.484 -9.372 9.607
0.486 -9.327 9.608
0.482 -9.282 9.607
0.483 -9.232 9.608
0.525 -9.377 9.628
0.524 -9.325 9.629
0.578 -9.378 9.66
0.579 -9.326 9.661
0.523 -9.278 9.63
0.524 -9.227 9.632
0.557 -9.267 9.645
0.579 -9.272 9.663
0.576 -9.222 9.661
0.426 -9.179 9.575
0.424 -9.122 9.57
0.461 -9.178 9.592
0.462 -9.127 9.592
0.428 -9.071 9.57
0.426 -9.023 9.57
0.466 -9.074 9.593
0.467 -9.017 9.592
0.487 -9.174 9.609
0.486 -9.125 9.608
0.492 -9.072 9.609
0.487 -9.036 9.607
0.525 -9.172 9.629
0.525 -9.126 9.63
0.563 -9.182 9.648
0.577 -9.176 9.663
0.562 -9.129 9.649
0.581 -9.127 9.662
0.524 -9.075 9.628
0.525 -9.026 9.628
0.554 -9.084 9.646
0.576 -9.074 9.658
0.553 -9.018 9.644
0.583 -9.029 9.66
0.139 -8.979 9.409
0.138 -8.928 9.407
0.171 -8.979 9.425
0.178 -8.923 9.428
0.133 -8.874 9.406
0.133 -8.824 9.406
0.173 -8.875 9.427
0.175 -8.826 9.43
0.133 -8.778 9.407
0.137 -8.731 9.409
0.174 -8.777 9.429
0.177 -8.729 9.431
0.135 -8.673 9.408
0.136 -8.627 9.409
0.173 -8.675 9.427
0.175 -8.625 9.431
0.138 -8.574 9.41
0.133 -8.521 9.407
0.178 -8.575 9.432
0.174 -8.524 9.429
0.138 -8.473 9.411
0.131 -8.424 9.409
0.176 -8.479 9.433
0.175 -8.429 9.432
0.135 -8.373 9.41
0.131 -8.327 9.409
0.174 -8.377 9.43
0.174 -8.326 9.43
0.134 -8.275 9.411
0.131 -8.224 9.409
0.176 -8.278 9.431
0.176 -8.228 9.434
0.207 -8.974 9.444
0.238 -8.973 9.464
0.206 -8.928 9.443
0.232 -8.922 9.46
0.281 -8.979 9.488
0.276 -8.929 9.486
0.207 -8.872 9.448
0.23 -8.876 9.461
0.204 -8.82 9.445
0.233 -8.823 9.462
0.271 -8.875 9.482
0.278 -8.827 9.487
0.303 -8.948 9.5
0.328 -8.978 9.514
0.325 -8.928 9.514
0.374 -8.973 9.541
0.397 -8.973 9.557
0.368 -8.922 9.536
0.393 -8.921 9.554
0.326 -8.878 9.515
0.327 -8.824 9.514
0.371 -8.875 9.538
0.394 -8.857 9.553
0.368 -8.822 9.539
0.393 -8.822 9.552
0.204 -8.772 9.446
0.23 -8.777 9.461
0.209 -8.748 9.45
0.23 -8.726 9.461
0.272 -8.775 9.483
0.275 -8.727 9.484
0.293 -8.723 9.501
0.205 -8.689 9.446
0.232 -8.676 9.461
0.206 -8.621 9.447
0.23 -8.626 9.461
0.276 -8.676 9.487
0.274 -8.626 9.485
0.328 -8.775 9.516
0.325 -8.726 9.513
0.367 -8.771 9.535
0.393 -8.775 9.554
0.372 -8.72 9.539
0.395 -8.743 9.555
0.325 -8.676 9.513
0.325 -8.626 9.514
0.371 -8.672 9.539
0.394 -8.674 9.551
0.371 -8.625 9.539
0.396 -8.619 9.554
0.428 -8.979 9.572
0.423 -8.926 9.568
0.459 -8.981 9.59
0.465 -8.926 9.592
0.425 -8.878 9.571
0.425 -8.823 9.568
0.46 -8.873 9.59
0.464 -8.825 9.593
0.485 -8.979 9.606
0.486 -8.925 9.604
0.487 -8.88 9.604
0.491 -8.822 9.607
0.525 -8.974 9.627
0.522 -8.921 9.625
0.56 -8.978 9.647
0.586 -8.979 9.664
0.56 -8.923 9.645
0.588 -8.925 9.663
0.525 -8.874 9.626
0.529 -8.827 9.628
0.556 -8.878 9.645
0.578 -8.872 9.656
0.56 -8.821 9.643
0.579 -8.823 9.657
0.424 -8.779 9.571
0.428 -8.725 9.571
0.464 -8.772 9.593
0.46 -8.723 9.588
0.425 -8.673 9.57
0.425 -8.623 9.57
0.464 -8.674 9.591
0.465 -8.632 9.592
0.487 -8.771 9.606
0.487 -8.722 9.607
0.488 -8.673 9.605
0.487 -8.621 9.605
0.524 -8.774 9.624
0.528 -8.726 9.628
0.555 -8.754 9.645
0.582 -8.776 9.658
0.566 -8.735 9.644
0.579 -8.723 9.658
0.525 -8.682 9.628
0.522 -8.627 9.624
0.556 -8.675 9.642
0.582 -8.674 9.658
0.556 -8.617 9.644
0.579 -8.628 9.657
0.207 -8.567 9.448
0.233 -8.576 9.462
0.206 -8.507 9.449
0.229 -8.526 9.46
0.276 -8.576 9.485
0.274 -8.527 9.485
0.299 -8.534 9.5
0.21 -8.483 9.446
0.229 -8.472 9.46
0.206 -8.417 9.446
0.229 -8.423 9.461
0.272 -8.475 9.483
0.271 -8.426 9.485
0.296 -8.494 9.501
0.297 -8.442 9.502
0.304 -8.56 9.497
0.326 -8.579 9.514
0.325 -8.526 9.515
0.369 -8.576 9.539
0.396 -8.569 9.556
0.371 -8.526 9.539
0.391 -8.514 9.551
0.306 -8.42 9.498
0.325 -8.473 9.513
0.33 -8.426 9.517
0.373 -8.48 9.54
0.385 -8.484 9.551
0.374 -8.429 9.541
0.396 -8.427 9.554
0.205 -8.36 9.448
0.229 -8.378 9.461
0.205 -8.324 9.448
0.229 -8.324 9.46
0.277 -8.377 9.487
0.272 -8.329 9.485
0.209 -8.285 9.445
0.229 -8.271 9.464
0.205 -8.232 9.447
0.228 -8.223 9.462
0.275 -8.28 9.488
0.271 -8.224 9.487
0.296 -8.267 9.504
0.3 -8.224 9.505
0.301 -8.349 9.495
0.328 -8.379 9.516
0.324 -8.328 9.514
0.368 -8.377 9.538
0.395 -8.369 9.555
0.369 -8.321 9.538
0.391 -8.342 9.555
0.326 -8.277 9.515
0.326 -8.227 9.517
0.369 -8.276 9.539
0.39 -8.276 9.554
0.368 -8.225 9.54
0.392 -8.22 9.553
0.423 -8.576 9.569
0.426 -8.531 9.572
0.464 -8.579 9.592
0.467 -8.524 9.594
0.428 -8.473 9.571
0.424 -8.42 9.571
0.467 -8.472 9.595
0.466 -8.428 9.595
0.489 -8.58 9.61
0.488 -8.526 9.607
0.489 -8.48 9.608
0.486 -8.424 9.606
0.527 -8.576 9.628
0.524 -8.529 9.627
0.558 -8.554 9.646
0.582 -8.581 9.661
0.559 -8.523 9.649
0.58 -8.523 9.659
0.525 -8.478 9.628
0.526 -8.432 9.629
0.561 -8.478 9.647
0.583 -8.476 9.662
0.561 -8.426 9.647
0.588 -8.432 9.665
0.426 -8.374 9.57
0.423 -8.326 9.57
0.461 -8.372 9.591
0.463 -8.322 9.595
0.425 -8.276 9.574
0.426 -8.223 9.573
0.46 -8.274 9.592
0.459 -8.234 9.592
0.489 -8.38 9.606
0.487 -8.33 9.606
0.482 -8.276 9.606
0.485 -8.22 9.608
0.526 -8.377 9.629
0.524 -8.323 9.628
0.556 -8.365 9.646
0.582 -8.375 9.661
0.555 -8.312 9.648
0.583 -8.326 9.662
0.526 -8.277 9.631
0.527 -8.22 9.632
0.555 -8.273 9.647
0.58 -8.271 9.661
0.559 -8.231 9.649
0.58 -8.227 9.663
0.644 -9.615 9.695
0.692 -9.665 9.721
0.675 -9.623 9.711
0.738 -9.758 9.749
0.725 -9.716 9.741
0.745 -9.727 9.753
0.776 -9.778 9.769
0.777 -9.722 9.772
0.722 -9.671 9.739
0.747 -9.666 9.755
0.72 -9.618 9.738
0.742 -9.643 9.752
0.778 -9.681 9.771
0.776 -9.634 9.77
0.624 -9.572 9.684
0.625 -9.528 9.685
0.651 -9.599 9.7
0.679 -9.578 9.716
0.676 -9.525 9.715
0.624 -9.479 9.684
0.622 -9.424 9.685
0.654 -9.435 9.699
0.65 -9.402 9.703
0.671 -9.475 9.713
0.679 -9.423 9.716
0.719 -9.58 9.738
0.747 -9.589 9.755
0.72 -9.53 9.74
0.745 -9.521 9.755
0.774 -9.574 9.771
0.773 -9.525 9.77
0.719 -9.473 9.739
0.747 -9.46 9.76
0.719 -9.427 9.741
0.742 -9.418 9.753
0.778 -9.478 9.772
0.773 -9.42 9.77
0.813 -9.777 9.791
0.815 -9.731 9.794
0.814 -9.677 9.793
0.808 -9.627 9.789
0.815 -9.578 9.795
0.811 -9.521 9.79
0.815 -9.485 9.792
0.81 -9.423 9.789
0.834 -9.762 9.803
0.841 -9.727 9.808
0.872 -9.779 9.824
0.875 -9.727 9.828
0.837 -9.67 9.805
0.834 -9.623 9.805
0.875 -9.675 9.827
0.879 -9.62 9.829
0.907 -9.771 9.846
0.931 -9.774 9.861
0.912 -9.724 9.847
0.94 -9.723 9.865
0.976 -9.773 9.884
0.975 -9.721 9.884
0.902 -9.659 9.839
0.935 -9.674 9.862
0.907 -9.639 9.841
0.93 -9.627 9.861
0.974 -9.678 9.883
0.971 -9.623 9.883
0.842 -9.583 9.809
0.838 -9.521 9.807
0.869 -9.575 9.825
0.876 -9.528 9.828
0.835 -9.481 9.808
0.839 -9.433 9.808
0.872 -9.474 9.826
0.875 -9.43 9.828
0.909 -9.578 9.849
0.928 -9.575 9.859
0.904 -9.506 9.845
0.934 -9.525 9.862
0.983 -9.578 9.891
0.973 -9.523 9.885
0.998 -9.556 9.901
0.913 -9.475 9.849
0.931 -9.47 9.862
0.904 -9.417 9.844
0.931 -9.425 9.86
0.971 -9.477 9.883
0.977 -9.424 9.888
0.999 -9.477 9.901
0.627 -9.371 9.689
0.627 -9.33 9.688
0.653 -9.369 9.698
0.675 -9.37 9.715
0.673 -9.323 9.715
0.622 -9.277 9.684
0.619 -9.225 9.685
0.649 -9.259 9.701
0.643 -9.225 9.702
0.678 -9.279 9.717
0.674 -9.226 9.715
0.713 -9.376 9.735
0.745 -9.386 9.758
0.721 -9.324 9.741
0.748 -9.312 9.762
0.773 -9.371 9.77
0.778 -9.325 9.773
0.717 -9.271 9.739
0.742 -9.271 9.754
0.716 -9.227 9.739
0.741 -9.239 9.753
0.773 -9.27 9.771
0.771 -9.226 9.77
0.624 -9.173 9.686
0.623 -9.123 9.686
0.672 -9.174 9.715
0.674 -9.126 9.718
0.623 -9.079 9.687
0.628 -9.023 9.687
0.649 -9.068 9.706
0.676 -9.077 9.716
0.672 -9.024 9.713
0.716 -9.186 9.741
0.741 -9.164 9.753
0.716 -9.126 9.738
0.737 -9.116 9.754
0.773 -9.177 9.771
0.769 -9.124 9.77
0.716 -9.078 9.741
0.745 -9.086 9.758
0.716 -9.03 9.737
0.738 -9.037 9.756
0.775 -9.072 9.772
0.777 -9.027 9.774
0.816 -9.37 9.794
0.815 -9.326 9.796
0.81 -9.275 9.791
0.812 -9.231 9.792
0.812 -9.175 9.793
0.815 -9.126 9.793
0.811 -9.072 9.792
0.815 -9.035 9.796
0.838 -9.375 9.806
0.838 -9.326 9.807
0.874 -9.376 9.827
0.878 -9.324 9.829
0.838 -9.274 9.806
0.836 -9.228 9.807
0.873 -9.273 9.825
0.874 -9.224 9.827
0.907 -9.374 9.848
0.932 -9.378 9.861
0.906 -9.324 9.845
0.933 -9.323 9.861
0.972 -9.367 9.884
0.971 -9.325 9.88
0.998 -9.337 9.901
0.906 -9.276 9.845
0.927 -9.277 9.857
0.909 -9.242 9.845
0.932 -9.224 9.86
0.97 -9.277 9.881
0.974 -9.226 9.881
0.845 -9.182 9.811
0.838 -9.121 9.809
0.873 -9.181 9.825
0.875 -9.122 9.828
0.832 -9.07 9.805
0.839 -9.023 9.809
0.872 -9.078 9.827
0.875 -9.021 9.829
0.907 -9.165 9.845
0.935 -9.18 9.863
0.912 -9.146 9.848
0.933 -9.125 9.86
0.977 -9.178 9.884
0.973 -9.116 9.883
0.907 -9.082 9.846
0.932 -9.064 9.86
0.904 -9.023 9.848
0.928 -9.019 9.861
0.977 -9.076 9.886
0.972 -9.024 9.885
1 -9.738 9.895
1.029 -9.774 9.912
1.027 -9.719 9.912
1.07 -9.773 9.935
1.093 -9.778 9.952
1.071 -9.722 9.939
1.093 -9.732 9.951
1 -9.641 9.899
1.023 -9.675 9.913
1.029 -9.626 9.916
1.071 -9.672 9.939
1.097 -9.667 9.954
1.068 -9.62 9.939
1.092 -9.608 9.954
1.129 -9.779 9.971
1.126 -9.723 9.969
1.165 -9.772 9.99
1.168 -9.722 9.992
1.126 -9.671 9.972
1.126 -9.629 9.972
1.166 -9.682 9.992
1.162 -9.623 9.991
1.192 -9.771 10.005
1.184 -9.706 10.003
1.19 -9.682 10.004
1.185 -9.616 10.005
1.025 -9.567 9.915
1.024 -9.528 9.917
1.072 -9.578 9.94
1.097 -9.578 9.953
1.061 -9.525 9.935
1.088 -9.521 9.953
1.026 -9.475 9.916
1.025 -9.423 9.915
1.068 -9.469 9.939
1.097 -9.497 9.957
1.066 -9.429 9.936
1.093 -9.431 9.955
1.124 -9.57 9.97
1.126 -9.528 9.972
1.167 -9.578 9.993
1.162 -9.523 9.992
1.124 -9.478 9.971
1.129 -9.425 9.972
1.166 -9.47 9.994
1.155 -9.411 9.988
1.195 -9.583 10.011
1.187 -9.522 10.006
1.193 -9.475 10.009
1.182 -9.431 10.005
1.23 -9.775 10.029
1.228 -9.725 10.026
1.261 -9.78 10.043
1.284 -9.77 10.058
1.266 -9.716 10.045
1.275 -9.715 10.054
1.219 -9.67 10.022
1.228 -9.632 10.028
1.258 -9.672 10.041
1.287 -9.68 10.06
1.261 -9.633 10.044
1.285 -9.619 10.062
