     5.134    -44.873     -26.88
     5.126    -44.828    -26.888
     5.157    -44.871    -26.865
     5.199    -44.864    -26.844
     5.178    -44.827    -26.859
       5.2    -44.835    -26.847
     5.221    -45.183    -26.836
     5.225    -45.117    -26.834
     5.272    -45.179    -26.809
     5.266    -45.125     -26.81
     5.221    -45.072    -26.832
     5.227    -45.017    -26.831
     5.266    -45.071    -26.808
     5.264     -45.02    -26.807
     5.221    -44.982    -26.834
     5.221    -44.929    -26.831
     5.268    -44.991    -26.807
     5.263    -44.925    -26.807
      5.23    -44.856    -26.826
      5.22    -44.817    -26.838
     5.266    -44.856    -26.808
     5.259    -44.835    -26.812
     5.194    -44.918    -26.422
     5.189    -44.826    -26.516
     5.146    -44.854    -26.413
      5.14    -44.832    -26.426
     5.189    -44.869    -26.469
     5.173    -44.883    -26.423
     5.166    -44.824    -26.476
     5.156    -44.845    -26.434
     5.299    -45.177    -26.791
     5.291    -45.126    -26.796
     5.291    -45.076    -26.794
     5.291    -45.019    -26.788
     5.331    -45.188    -26.775
     5.329    -45.127    -26.775
     5.361    -45.177    -26.761
     5.395    -45.166    -26.742
     5.355    -45.125    -26.761
     5.389     -45.12    -26.742
     5.317     -45.07    -26.777
     5.346    -45.041    -26.769
     5.364    -45.077    -26.759
     5.384    -45.061    -26.743
     5.364    -45.048    -26.758
     5.387    -45.048    -26.739
     5.348    -45.008    -26.613
     5.392    -45.076    -26.617
     5.386    -45.015    -26.666
     5.374    -45.026    -26.624
     5.296    -45.004    -26.503
     5.243    -45.004    -26.407
     5.289    -45.066    -26.416
     5.286    -45.019    -26.468
     5.268    -45.027    -26.426
       5.4    -45.153    -26.515
     5.393    -45.114    -26.575
     5.382    -45.124    -26.521
     5.341    -45.158    -26.408
     5.341    -45.109    -26.466
     5.331    -45.122     -26.43
     5.383    -45.169    -26.468
     5.364    -45.176    -26.427
     5.361    -45.126    -26.479
      5.34    -45.063    -26.515
      5.34    -45.011    -26.572
     5.322    -45.022    -26.529
     5.383     -45.08    -26.574
     5.361    -45.079    -26.533
      5.36    -45.036    -26.576
     5.354    -45.047    -26.547
     5.325    -45.072    -26.477
     5.311    -45.083    -26.438
     5.308    -45.027    -26.496
     5.282    -44.991    -26.797
     5.291    -44.929    -26.793
     5.298    -44.919    -26.612
     5.291    -44.834    -26.792
     5.294    -44.822     -26.71
     5.244    -44.803    -26.657
      5.24    -44.811    -26.619
     5.288    -44.869    -26.665
     5.283    -44.879    -26.625
     5.273    -44.827    -26.678
     5.259    -44.835    -26.625
     5.324     -44.99    -26.775
      5.32    -44.921    -26.777
     5.342    -44.914    -26.708
     5.358    -44.979    -26.756
     5.385    -44.977    -26.723
     5.352    -44.935    -26.756
     5.365    -44.933    -26.725
      5.34    -44.956    -26.659
     5.335    -44.973    -26.624
     5.335    -44.924    -26.678
     5.314     -44.93     -26.63
     5.371    -44.981    -26.675
     5.353    -44.983    -26.636
      5.33    -44.877    -26.769
     5.333    -44.872    -26.725
     5.317    -44.829    -26.767
     5.309    -44.832    -26.726
     5.355    -44.894    -26.737
     5.312    -44.879    -26.682
     5.238    -44.911    -26.513
     5.296    -44.951    -26.564
     5.284    -44.969     -26.52
     5.281    -44.919    -26.572
      5.26    -44.924    -26.528
     5.242    -44.957    -26.467
     5.227    -44.968    -26.422
     5.226     -44.92    -26.476
     5.215    -44.933     -26.44
     5.264    -44.976    -26.479
      5.25    -44.982     -26.45
     5.253    -44.946    -26.488
     5.238     -44.86    -26.563
     5.225    -44.874    -26.526
     5.224    -44.824     -26.58
     5.212    -44.835    -26.545
     5.261    -44.879    -26.579
     5.253    -44.899    -26.548
     5.209    -44.887    -26.483
     5.319    -44.974    -26.578
     5.307    -44.979    -26.543
     5.305    -44.941     -26.58
     4.896      -45.2    -25.603
         5    -45.306    -25.651
     4.987    -45.319    -25.617
     4.997    -45.264    -25.701
     4.994    -45.213    -25.753
     4.982    -45.218    -25.721
     4.945    -45.265    -25.605
     4.944    -45.217    -25.662
     4.927    -45.223    -25.621
     4.983    -45.269    -25.665
     4.967    -45.276    -25.628
     4.966    -45.229     -25.68
     4.953    -45.227     -25.65
     4.992    -44.809      -26.2
     4.895    -44.813    -26.016
     4.945    -44.906    -26.012
      4.99    -44.965    -26.016
     4.991    -44.919    -26.072
     4.974    -44.928    -26.027
     4.947    -44.812    -26.113
     4.985    -44.866    -26.117
     4.984    -44.822    -26.167
     4.969    -44.831    -26.128
     4.947    -44.863    -26.055
     4.932    -44.869    -26.021
      4.93    -44.817    -26.073
     4.914    -44.837    -26.029
      4.97    -44.879    -26.076
     4.955    -44.891    -26.037
      4.79    -45.016    -25.617
     4.783    -44.822    -25.818
     4.647    -44.805    -25.605
      4.69    -44.858    -25.615
     4.694    -44.814    -25.678
     4.671    -44.818     -25.63
     4.797    -44.906    -25.751
     4.783    -44.915    -25.716
     4.742    -44.954    -25.604
     4.748    -44.909    -25.659
     4.734    -44.921    -25.625
      4.79    -44.969    -25.667
     4.768    -44.971    -25.625
     4.768    -44.926    -25.677
     4.758    -44.941    -25.646
     4.741    -44.858    -25.711
     4.746    -44.817    -25.767
     4.732     -44.82     -25.73
     4.784    -44.868    -25.772
     4.768     -44.88    -25.727
     4.767    -44.831    -25.777
     4.755    -44.846    -25.737
     4.729    -44.866    -25.673
     4.711    -44.881    -25.627
     4.712     -44.83    -25.682
     4.702    -44.849    -25.641
     4.895     -45.01    -25.806
     4.991    -45.105    -25.865
     4.981    -45.126    -25.824
     4.987    -45.062    -25.911
     4.993    -45.012    -25.973
     4.973    -45.023    -25.925
     4.938    -45.064    -25.816
     4.937    -45.016    -25.871
      4.92    -45.027    -25.827
     4.975    -45.074    -25.871
      4.96    -45.086    -25.827
      4.96     -45.03    -25.891
     4.845    -45.111    -25.602
      4.89    -45.161    -25.626
     4.889    -45.121    -25.666
     4.867    -45.126    -25.624
     4.843     -45.01    -25.713
     4.898    -45.062    -25.752
     4.888     -45.07    -25.719
     4.881    -45.017    -25.772
     4.865    -45.029    -25.728
     4.846    -45.063    -25.661
     4.833    -45.076    -25.623
     4.827    -45.019    -25.673
     4.812    -45.036    -25.632
     4.867     -45.08    -25.677
     4.856    -45.091    -25.646
     4.852    -45.039    -25.698
     4.943    -45.163    -25.714
     4.944    -45.114    -25.767
     4.926    -45.124    -25.727
     4.978    -45.172    -25.769
     4.963    -45.178    -25.733
     4.963     -45.13    -25.787
     4.927    -45.174    -25.675
      4.91    -45.185    -25.633
     4.907    -45.131     -25.69
      4.92    -45.074    -25.776
      4.91    -45.083    -25.739
     4.904    -45.032     -25.79
     4.889    -44.904    -25.914
     4.838    -44.916    -25.811
     4.898    -44.956    -25.873
      4.88    -44.971    -25.821
     4.882    -44.928    -25.873
     4.862     -44.93    -25.834
     4.838      -44.8     -25.95
     4.839     -44.82    -25.917
     4.895    -44.864    -25.959
     4.876    -44.874     -25.92
     4.876    -44.822    -25.975
     4.859    -44.834    -25.935
     4.838    -44.859    -25.873
     4.825    -44.879    -25.827
     4.821    -44.829    -25.875
     4.808    -44.839    -25.837
      4.86    -44.887    -25.876
     4.948    -44.952    -25.956
     4.937    -44.967    -25.921
     4.938    -44.921    -25.975
     4.918     -44.93    -25.928
     4.969    -44.975    -25.968
      4.96    -44.989    -25.931
     4.961    -44.943    -25.991
     4.913    -44.973    -25.876
     4.906     -44.99    -25.836
     4.908    -44.937    -25.899
     4.915    -44.882    -25.978
     4.903    -44.895    -25.942
     4.846    -44.971    -25.767
     4.825    -44.972    -25.724
     4.825    -44.927     -25.77
      4.81    -44.932    -25.737
     4.863    -44.976    -25.782
     4.811    -44.979    -25.689
     4.808    -44.884    -25.788
     5.148    -45.214    -26.016
     5.183     -45.27    -26.013
     5.186    -45.224    -26.066
     5.167    -45.231    -26.028
     5.388    -45.412     -26.21
     5.295    -45.453    -26.009
     5.298    -45.406    -26.059
     5.285    -45.418    -26.025
     5.396    -45.516    -26.111
      5.34    -45.512    -26.019
     5.397    -45.563    -26.076
     5.382    -45.572    -26.022
     5.379    -45.523    -26.072
     5.361    -45.528    -26.029
      5.34    -45.421    -26.119
     5.393    -45.462    -26.164
     5.379    -45.473    -26.124
     5.377    -45.426    -26.175
      5.36    -45.433    -26.135
     5.339    -45.461    -26.069
      5.32    -45.475    -26.025
      5.32    -45.428    -26.074
     5.309    -45.439    -26.041
     5.361    -45.476    -26.086
     5.292    -45.262    -26.208
     5.292     -45.21    -26.267
     5.281    -45.227    -26.226
     5.388    -45.317    -26.313
     5.336     -45.32     -26.22
     5.389    -45.359    -26.267
     5.376    -45.376     -26.23
     5.371    -45.321    -26.275
     5.354     -45.34    -26.225
     5.348    -45.262    -26.312
     5.344    -45.214    -26.359
     5.332    -45.219    -26.321
     5.387    -45.265    -26.368
     5.372    -45.276    -26.329
     5.366    -45.225     -26.38
     5.353    -45.235    -26.337
     5.337    -45.272    -26.272
     5.315    -45.274    -26.229
     5.314    -45.229    -26.283
     5.356    -45.291    -26.279
     5.295    -45.353     -26.11
      5.29    -45.308    -26.159
     5.282    -45.327    -26.121
     5.242    -45.362    -26.011
     5.246    -45.322    -26.063
     5.227    -45.328    -26.025
     5.284    -45.371    -26.075
     5.267    -45.379    -26.032
     5.265     -45.33    -26.078
     5.239    -45.267    -26.116
     5.238    -45.215    -26.168
     5.222    -45.227    -26.125
     5.279    -45.273    -26.172
      5.26    -45.281    -26.127
     5.261    -45.234    -26.186
     5.226    -45.279    -26.076
     5.208    -45.286    -26.037
     5.204    -45.234    -26.082
     5.337    -45.371    -26.166
     5.319    -45.376    -26.126
     5.317    -45.333    -26.179
     5.306    -45.338    -26.149
     5.358    -45.382    -26.182
     5.309    -45.393    -26.093
     5.312      -45.3    -26.197
     5.149    -45.403    -25.814
     5.195    -45.468    -25.816
     5.189    -45.418    -25.861
     5.176    -45.425    -25.825
      5.09    -45.404    -25.707
     5.043    -45.414    -25.605
     5.091    -45.451    -25.658
     5.085    -45.472     -25.62
     5.086    -45.423    -25.672
     5.066    -45.429    -25.628
     5.195    -45.564    -25.713
     5.197    -45.508    -25.766
      5.18    -45.522    -25.726
     5.143    -45.561    -25.624
     5.143    -45.516     -25.67
     5.123    -45.526    -25.622
     5.182    -45.574    -25.672
     5.165    -45.579    -25.633
     5.162    -45.535    -25.684
     5.149    -45.452    -25.759
     5.141    -45.468    -25.719
     5.136    -45.418    -25.767
     5.123    -45.432    -25.728
     5.177    -45.474    -25.775
      5.16    -45.486     -25.73
     5.161    -45.435    -25.785
     5.123    -45.478    -25.677
     5.107    -45.491    -25.635
     5.108    -45.434    -25.687
     5.094    -45.304    -25.821
     5.092    -45.213    -25.917
     5.038    -45.218    -25.823
     5.091    -45.256    -25.868
     5.077    -45.274    -25.825
     5.074    -45.222    -25.877
     5.059    -45.239    -25.828
     5.144    -45.308    -25.901
     5.191     -45.37    -25.912
     5.191     -45.32    -25.967
     5.173    -45.325     -25.93
     5.138    -45.372    -25.819
     5.136    -45.324    -25.871
     5.117    -45.331    -25.826
     5.176    -45.376    -25.876
     5.157    -45.384    -25.838
     5.159    -45.347    -25.885
     5.145    -45.264    -25.957
     5.136    -45.278    -25.922
     5.132    -45.227    -25.969
     5.116    -45.232    -25.932
     5.171    -45.278     -25.98
     5.158    -45.288    -25.923
     5.151    -45.235    -25.983
     5.117    -45.284    -25.877
     5.103    -45.245    -25.896
      5.04    -45.313    -25.715
     5.092    -45.355    -25.766
     5.081     -45.37    -25.725
      5.08    -45.319    -25.779
     5.064    -45.335    -25.731
     5.041    -45.359    -25.666
     5.027    -45.372    -25.626
     5.021    -45.321    -25.675
     5.006    -45.332    -25.633
     5.064    -45.378    -25.681
     5.053    -45.398    -25.639
     5.054    -45.349    -25.695
     5.041    -45.269    -25.772
     5.019    -45.272    -25.727
      5.02    -45.225    -25.778
     5.006    -45.237    -25.737
     5.062    -45.288    -25.778
     5.053    -45.284    -25.747
     5.007    -45.284    -25.686
     5.122    -45.382    -25.776
     5.104    -45.394    -25.734
     5.107    -45.344     -25.79
     5.289    -45.519    -25.918
     5.244    -45.557    -25.802
     5.244    -45.508    -25.855
     5.236     -45.52    -25.825
     5.292    -45.563    -25.873
     5.274    -45.577    -25.828
     5.272    -45.532    -25.871
     5.257    -45.545    -25.832
     5.244    -45.454    -25.908
     5.236    -45.411    -25.954
     5.233    -45.425    -25.925
     5.286    -45.468    -25.972
     5.271     -45.48    -25.925
     5.266    -45.425    -25.978
     5.259    -45.445    -25.943
     5.233    -45.473    -25.876
     5.214    -45.481    -25.828
      5.21    -45.431    -25.877
     5.258    -45.494    -25.888
     5.343    -45.561    -25.968
     5.329    -45.577    -25.922
     5.322    -45.521    -25.973
     5.313    -45.541    -25.936
     5.363     -45.58    -25.981
     5.355    -45.591    -25.948
      5.31    -45.579    -25.887
     5.309    -45.493    -25.991
     5.237    -45.575    -25.769
     5.216    -45.577    -25.731
     5.217    -45.534    -25.776
     5.261     -45.59    -25.786
     5.207      -45.5    -25.783
     5.231    -45.377    -25.974
     5.208    -45.382     -25.93
     5.208    -45.337    -25.985
     5.256    -45.393    -25.998
     5.197    -45.119    -26.205
     5.195    -45.015    -26.314
     5.138    -45.014    -26.217
     5.192    -45.059    -26.262
     5.181    -45.079    -26.221
     5.181    -45.028    -26.275
     5.158    -45.034     -26.23
     5.087    -45.114    -26.017
     5.097    -45.052    -26.112
     5.085    -45.019    -26.119
     5.042    -45.052    -26.012
      5.04    -45.002    -26.068
      5.03    -45.023    -26.022
     5.085    -45.076    -26.063
     5.069    -45.075    -26.029
     5.069    -45.029    -26.081
     5.055     -45.03    -26.043
     5.137    -45.107    -26.119
      5.19     -45.15    -26.152
     5.186    -45.176    -26.119
     5.185    -45.127    -26.175
     5.163    -45.133    -26.128
     5.141    -45.159    -26.068
     5.132    -45.182    -26.022
     5.126    -45.122    -26.076
     5.109    -45.137    -26.027
     5.168    -45.183    -26.077
     5.156    -45.196    -26.045
     5.145    -45.067    -26.168
     5.125    -45.073    -26.127
     5.122    -45.028    -26.175
     5.103    -45.029    -26.137
      5.16    -45.084    -26.181
     5.104    -45.084    -26.078
     5.098    -44.964    -26.205
     5.092    -44.903    -26.258
     5.081    -44.923    -26.222
     5.093    -44.855    -26.315
     5.092    -44.813    -26.361
     5.077    -44.822    -26.325
     5.039    -44.866    -26.215
     5.037    -44.813    -26.269
     5.023    -44.829    -26.222
     5.081     -44.87    -26.277
      5.06     -44.87    -26.237
     5.059    -44.831    -26.283
     5.055    -44.849    -26.247
     5.146    -44.903    -26.354
     5.133    -44.918    -26.316
     5.193    -44.963    -26.366
     5.173    -44.972    -26.327
     5.173    -44.926    -26.374
     5.156    -44.933    -26.337
     5.138    -44.965    -26.272
      5.12    -44.978    -26.228
     5.115    -44.931    -26.271
     5.103    -44.938    -26.239
      5.16    -44.992     -26.28
     5.139    -44.875    -26.372
     5.116    -44.878    -26.329
     5.115    -44.828    -26.381
     5.106    -44.845    -26.343
     5.167    -44.895    -26.392
     5.111    -44.898    -26.288
     5.045    -44.971    -26.109
     5.038    -44.906    -26.164
     5.028    -44.924    -26.123
     5.084    -44.975    -26.169
     5.066    -44.977    -26.131
     5.062    -44.931     -26.18
      5.05    -44.933     -26.15
     5.027    -44.972     -26.07
     5.012    -44.987    -26.031
      5.01    -44.928    -26.088
     5.056     -44.99    -26.095
     5.026    -44.876    -26.178
     5.006    -44.883    -26.137
     5.007    -44.835    -26.184
     5.105    -44.988    -26.189
     5.246    -45.102    -26.312
     5.291    -45.167    -26.312
     5.289    -45.113     -26.37
     5.272    -45.126    -26.328
     5.238    -45.169    -26.218
     5.236    -45.115    -26.277
      5.22     -45.13    -26.231
     5.271    -45.174    -26.271
     5.259     -45.19    -26.227
     5.257    -45.137    -26.286
     5.246    -45.057    -26.359
     5.234    -45.071     -26.32
     5.232    -45.023    -26.374
     5.214    -45.031    -26.329
     5.269    -45.075    -26.378
     5.255    -45.087    -26.337
     5.262    -45.049    -26.381
     5.217    -45.077    -26.282
     5.209    -45.093    -26.246
     5.327    -45.171    -26.371
     5.312     -45.18    -26.334
     5.312     -45.13    -26.388
      5.22    -45.179    -26.177
     5.206    -45.188    -26.141
     5.203    -45.139    -26.188
     5.212    -44.986    -26.377
     5.204    -44.949    -26.398
     5.035    -45.105    -25.951
     5.038    -45.122     -25.92
     5.092    -45.168     -25.97
     5.073    -45.176    -25.925
     5.071    -45.127    -25.973
      5.06     -45.14     -25.94
     5.035    -45.167    -25.874
     5.019    -45.177     -25.83
     5.017    -45.127    -25.882
     5.005    -45.142    -25.845
     5.056    -45.187    -25.886
     5.036    -45.075    -25.974
     5.016    -45.081    -25.931
     5.013    -45.031    -25.981
     5.061    -45.093    -25.989
         5    -45.095     -25.89
     5.114    -45.187    -25.983
     5.006    -45.189    -25.792
      5.42    -46.377    -26.739
     5.425    -46.332    -26.734
     5.468    -46.371    -26.712
     5.471    -46.321    -26.708
     5.488    -46.366    -26.697
     5.497    -46.319    -26.694
     5.423    -46.271    -26.734
     5.426    -46.226    -26.734
     5.467    -46.273    -26.709
     5.473    -46.224    -26.707
      5.49    -46.259    -26.694
      5.49    -46.224    -26.694
     5.526    -46.383    -26.677
     5.525    -46.334    -26.676
     5.562    -46.394    -26.658
     5.588    -46.375    -26.641
     5.561    -46.331    -26.658
     5.583    -46.321    -26.642
     5.529     -46.27    -26.675
     5.532    -46.226    -26.671
     5.563    -46.275    -26.657
     5.595    -46.272    -26.638
     5.563    -46.234    -26.654
     5.586    -46.235    -26.641
     5.426    -46.175    -26.732
     5.421    -46.145    -26.737
     5.463    -46.168    -26.712
     5.472    -46.138    -26.705
     5.498    -46.187    -26.696
     5.492    -46.142    -26.698
     5.423    -46.084    -26.735
     5.427    -46.028    -26.732
     5.466    -46.078     -26.71
     5.469    -46.025    -26.707
     5.492    -46.075    -26.693
     5.496    -46.001    -26.692
     5.519    -46.171    -26.679
     5.531    -46.134    -26.674
     5.565    -46.176    -26.656
     5.569    -46.137    -26.658
     5.585     -46.13    -26.642
     5.522    -46.073    -26.677
     5.541    -46.014    -26.671
      5.56     -46.09    -26.658
     5.588    -46.071    -26.639
     5.563    -46.032    -26.661
     5.588    -46.025    -26.642
     5.632    -46.372    -26.616
     5.621    -46.316    -26.621
     5.658    -46.356    -26.602
     5.655    -46.305    -26.605
     5.619    -46.263    -26.623
     5.621    -46.218    -26.622
     5.656     -46.26    -26.604
     5.652    -46.214    -26.605
     5.678    -46.373    -26.591
     5.682     -46.32    -26.585
      5.68    -46.286    -26.588
     5.677    -46.225    -26.591
      5.72    -46.358    -26.569
     5.744    -46.383    -26.549
     5.719    -46.315    -26.565
     5.749    -46.329    -26.548
     5.778    -46.375    -26.532
     5.774    -46.322    -26.536
     5.723    -46.263    -26.567
     5.721    -46.223    -26.562
     5.775    -46.276    -26.534
     5.774    -46.235    -26.533
     5.622    -46.157    -26.623
     5.625    -46.131    -26.619
     5.654    -46.157    -26.604
     5.667    -46.143    -26.602
     5.623    -46.074    -26.622
     5.617    -46.019    -26.624
     5.658    -46.091    -26.607
     5.683    -46.185    -26.586
     5.678     -46.12    -26.586
     5.646    -46.031      -26.6
     5.676     -46.07     -26.59
     5.683    -46.026    -26.584
     5.722    -46.164    -26.567
     5.746    -46.193    -26.546
     5.726    -46.121    -26.562
     5.741    -46.118     -26.55
      5.77     -46.18    -26.535
     5.784    -46.114    -26.529
     5.723    -46.066    -26.565
      5.75    -46.081    -26.546
     5.719    -46.021    -26.567
     5.778    -46.077    -26.535
     5.775    -46.025    -26.535
     5.427    -45.977     -26.73
     5.426     -45.93     -26.73
     5.465    -45.975    -26.711
     5.469    -45.923    -26.707
     5.497    -45.991    -26.694
     5.492    -45.925    -26.694
     5.426    -45.886    -26.732
     5.423    -45.827    -26.733
     5.465    -45.883    -26.712
     5.463    -45.831    -26.708
     5.497    -45.883    -26.693
     5.492    -45.826    -26.694
     5.523    -45.984    -26.677
     5.522    -45.923    -26.679
     5.559    -45.984    -26.659
     5.581    -45.973    -26.643
     5.569    -45.935    -26.655
     5.589    -45.925     -26.64
     5.534     -45.88     -26.67
     5.521    -45.817    -26.678
     5.563    -45.877    -26.656
     5.589    -45.882    -26.639
     5.564    -45.831    -26.656
      5.59    -45.839     -26.64
     5.424    -45.783    -26.731
      5.42    -45.721    -26.732
     5.464    -45.775    -26.711
     5.455    -45.726    -26.712
     5.491    -45.784    -26.694
     5.484    -45.729    -26.695
     5.427    -45.665    -26.729
     5.411    -45.623    -26.736
     5.463     -45.66    -26.711
     5.458    -45.622    -26.709
      5.49    -45.672    -26.693
     5.485    -45.629    -26.695
     5.528    -45.777    -26.672
     5.523     -45.72    -26.675
      5.56    -45.769     -26.66
     5.584    -45.788    -26.642
     5.558    -45.714    -26.657
     5.584    -45.719    -26.642
     5.527    -45.663    -26.675
     5.524    -45.623    -26.673
     5.558     -45.68    -26.654
     5.588    -45.665    -26.641
     5.565    -45.608    -26.652
     5.589    -45.611    -26.636
     5.625    -45.969    -26.621
     5.629    -45.931    -26.616
     5.657    -45.979    -26.602
     5.651    -45.934    -26.611
     5.632    -45.882    -26.616
     5.617    -45.845    -26.623
     5.652    -45.837    -26.607
     5.677    -45.967    -26.589
     5.685     -45.93     -26.58
     5.675    -45.872    -26.591
      5.68    -45.831    -26.587
     5.726    -45.974    -26.565
     5.718     -45.93    -26.565
     5.777    -45.967    -26.534
     5.773    -45.924    -26.533
     5.725    -45.876    -26.562
     5.748    -45.865    -26.547
     5.737    -45.833    -26.554
     5.776    -45.863    -26.533
     5.777    -45.821    -26.529
     5.745    -45.806    -26.407
     5.786    -45.866    -26.419
     5.788    -45.819    -26.472
     5.767    -45.825    -26.429
     5.621    -45.781    -26.622
     5.624    -45.723     -26.62
     5.659    -45.778    -26.603
     5.653    -45.737    -26.603
     5.628    -45.677    -26.616
     5.629    -45.619    -26.614
     5.657    -45.614    -26.602
     5.685     -45.78    -26.584
     5.682    -45.733    -26.587
     5.686    -45.712    -26.415
     5.673    -45.687     -26.59
     5.676    -45.623    -26.588
     5.687    -45.621    -26.517
     5.649    -45.609    -26.452
     5.638    -45.623     -26.42
     5.691    -45.671    -26.466
     5.674    -45.676    -26.427
      5.67    -45.625    -26.476
     5.657    -45.645    -26.429
     5.722    -45.779    -26.562
     5.728    -45.739    -26.561
     5.741    -45.718    -26.521
     5.775    -45.768    -26.516
     5.758    -45.735    -26.531
     5.742    -45.761    -26.464
     5.728     -45.77    -26.422
     5.729    -45.726    -26.474
     5.713    -45.731    -26.438
     5.763    -45.778    -26.478
     5.752    -45.798    -26.443
     5.753    -45.742    -26.496
     5.714    -45.679    -26.566
     5.725    -45.674    -26.525
      5.71    -45.628    -26.563
     5.708    -45.633    -26.538
      5.71    -45.682     -26.48
     5.819    -46.367     -26.51
     5.816    -46.322    -26.511
     5.843    -46.384    -26.496
     5.841    -46.332    -26.498
     5.875    -46.385    -26.476
     5.874    -46.326    -26.482
     5.812    -46.283    -26.513
      5.82    -46.227    -26.509
     5.836    -46.286    -26.497
     5.848    -46.229    -26.495
     5.877    -46.285    -26.477
     5.878    -46.239    -26.477
      5.91    -46.377    -26.459
     5.933    -46.373    -26.444
      5.91     -46.33    -26.462
     5.933    -46.318    -26.443
     5.967    -46.368    -26.423
     5.978    -46.323     -26.42
     5.908    -46.286    -26.458
      5.94    -46.264    -26.439
     5.915    -46.243    -26.457
      5.93    -46.215    -26.442
     5.978    -46.264    -26.418
     5.971    -46.219    -26.422
     5.816    -46.178    -26.512
     5.818    -46.126    -26.512
     5.844    -46.194    -26.492
      5.84    -46.129    -26.495
     5.876    -46.189    -26.477
     5.877    -46.136    -26.475
     5.813    -46.086    -26.511
     5.816    -46.017    -26.512
     5.842    -46.095    -26.493
     5.841    -46.027    -26.495
     5.874    -46.076    -26.477
     5.878    -46.016    -26.472
     5.883     -46.02    -26.417
     5.909    -46.181    -26.458
      5.94    -46.168    -26.439
     5.914    -46.115    -26.454
      5.94    -46.116    -26.421
      5.97    -46.166    -26.417
     5.957    -46.134    -26.415
     5.905    -46.088    -26.456
     5.919    -46.076    -26.423
     5.906    -46.045    -26.458
     5.905    -46.042    -26.433
     6.008    -46.374    -26.402
     6.006    -46.317    -26.402
         6    -46.261    -26.404
     6.001    -46.228    -26.401
     5.819     -45.98    -26.508
     5.815    -45.922    -26.508
     5.845    -45.985    -26.493
      5.84    -45.965    -26.408
     5.841    -45.922    -26.472
     5.826    -45.926    -26.422
     5.872    -45.975    -26.464
     5.867     -45.98    -26.431
     5.858    -45.942    -26.471
     5.813    -45.874     -26.51
     5.807    -45.827     -26.51
     5.822    -45.878    -26.475
     5.809    -45.887    -26.432
     5.809    -45.834    -26.488
     5.797    -46.203    -26.054
     5.789    -46.223    -26.019
     5.793    -46.008    -26.261
     5.782    -46.022    -26.221
     5.648    -46.012    -26.002
     5.693    -46.067    -26.017
     5.692    -46.016    -26.074
     5.671    -46.021    -26.027
     5.797    -46.155    -26.104
     5.797    -46.101    -26.159
     5.787    -46.117    -26.122
     5.746    -46.158     -26.02
     5.746    -46.114    -26.062
     5.729    -46.123    -26.017
     5.788    -46.164    -26.073
     5.771    -46.177    -26.027
     5.768    -46.125    -26.078
     5.759    -46.148    -26.038
     5.746    -46.015    -26.164
     5.729    -46.027    -26.119
     5.785    -46.072     -26.17
     5.768    -46.079    -26.128
     5.768    -46.035    -26.179
      5.75    -46.038     -26.14
     5.733    -46.075    -26.073
     5.713     -46.08    -26.035
     5.713    -46.041    -26.078
     5.755    -46.098    -26.083
     5.543    -46.214      -25.6
     5.591     -46.27    -25.614
     5.589     -46.22     -25.67
     5.569    -46.225    -25.626
     5.598    -46.105    -25.803
     5.596    -46.013     -25.91
      5.54    -46.012    -25.817
     5.594    -46.058    -25.862
     5.585    -46.073     -25.82
     5.583    -46.023    -25.873
     5.567    -46.032    -25.834
     5.488    -46.109    -25.617
     5.487    -46.014    -25.719
     5.439    -46.005    -25.651
     5.438    -46.022     -25.62
     5.492    -46.069    -25.668
     5.471    -46.072    -25.625
     5.473    -46.028    -25.675
     5.456    -46.038    -25.637
     5.544     -46.11    -25.707
     5.585    -46.167    -25.719
     5.585     -46.12    -25.769
     5.566    -46.125    -25.729
     5.549    -46.181    -25.655
     5.533    -46.172    -25.622
     5.529    -46.124    -25.672
     5.512    -46.134    -25.629
     5.568    -46.175    -25.679
     5.557    -46.192    -25.641
      5.55    -46.134    -25.685
     5.545    -46.062    -25.763
     5.531    -46.077    -25.725
     5.528    -46.023    -25.775
     5.512    -46.037     -25.73
     5.564    -46.077    -25.781
     5.555    -46.087    -25.746
      5.51    -46.081    -25.682
     5.695    -46.262     -25.81
     5.692     -46.21    -25.861
     5.678    -46.221    -25.823
     5.792    -46.319    -25.918
      5.75    -46.351    -25.808
     5.737    -46.319    -25.816
     5.792    -46.368     -25.86
     5.777    -46.376    -25.824
     5.774    -46.326    -25.875
     5.759    -46.336    -25.833
     5.746    -46.208    -25.963
     5.734     -46.22     -25.92
      5.79    -46.271    -25.963
     5.775    -46.279    -25.926
     5.773     -46.23    -25.975
     5.754    -46.242    -25.931
     5.735    -46.269    -25.869
     5.717    -46.277    -25.829
     5.715    -46.228    -25.878
     5.704    -46.234    -25.844
     5.756    -46.286    -25.887
     5.685    -46.324    -25.722
     5.642    -46.359    -25.612
     5.638    -46.308    -25.657
     5.627    -46.319    -25.626
     5.685    -46.371     -25.67
     5.669    -46.376    -25.631
     5.663    -46.328    -25.679
     5.643    -46.259    -25.717
     5.639    -46.216    -25.758
     5.623    -46.223    -25.724
     5.683    -46.271    -25.775
     5.663    -46.281    -25.727
     5.661     -46.23     -25.78
      5.63    -46.275    -25.677
     5.609    -46.285    -25.633
     5.609    -46.238    -25.682
     5.743    -46.379    -25.765
     5.722    -46.376    -25.727
      5.72    -46.329    -25.773
     5.707    -46.336    -25.739
     5.758    -46.383    -25.784
     5.706    -46.384     -25.69
     5.708    -46.292    -25.789
     5.692    -46.163    -25.912
     5.691    -46.112    -25.965
     5.678    -46.127    -25.924
     5.649    -46.151    -25.852
     5.642    -46.167    -25.817
     5.638    -46.114     -25.87
     5.621    -46.125    -25.828
      5.68    -46.173    -25.876
      5.66    -46.179    -25.835
     5.661    -46.133    -25.884
     5.645    -46.052    -25.954
     5.637    -46.071    -25.918
     5.636    -46.022    -25.969
     5.619    -46.026    -25.931
     5.673    -46.075    -25.976
     5.662    -46.086    -25.937
      5.66    -46.042    -25.988
     5.618    -46.074    -25.878
     5.609    -46.084    -25.842
     5.608    -46.041    -25.898
     5.732    -46.172    -25.972
     5.713    -46.171    -25.934
      5.71    -46.127    -25.981
     5.758    -46.194     -25.99
     5.624    -46.175    -25.776
     5.606    -46.187    -25.736
     5.606    -46.133    -25.787
     5.651    -46.195     -25.79
     5.593    -45.913     -26.01
     5.589    -45.811    -26.118
     5.536    -45.815    -26.021
     5.588    -45.861    -26.064
     5.577    -45.876    -26.024
     5.573    -45.823    -26.076
     5.558    -45.842     -26.03
     5.591    -45.717    -26.219
     5.595     -45.65    -26.304
     5.597    -45.607    -26.358
     5.583    -45.624    -26.318
     5.546    -45.653    -26.217
     5.544    -45.612    -26.264
     5.528    -45.617    -26.224
     5.587     -45.67    -26.267
     5.568    -45.676    -26.225
     5.561    -45.623    -26.278
     5.556    -45.642    -26.236
      5.49    -45.754    -26.007
     5.496    -45.716    -26.062
     5.479    -45.723    -26.021
     5.488    -45.654    -26.118
      5.49    -45.613    -26.166
     5.476    -45.623    -26.125
      5.44    -45.668    -26.016
     5.439    -45.613    -26.071
     5.421    -45.628    -26.026
     5.479    -45.674    -26.075
     5.462    -45.679    -26.041
     5.459    -45.641    -26.079
     5.545    -45.751    -26.118
     5.529    -45.717     -26.12
     5.589    -45.763    -26.171
     5.573    -45.779    -26.127
     5.569    -45.726    -26.177
     5.556    -45.737    -26.138
     5.534     -45.77    -26.069
     5.517    -45.774    -26.032
     5.519     -45.73    -26.082
     5.501    -45.748    -26.039
     5.555    -45.786    -26.085
     5.532    -45.671     -26.17
     5.513    -45.682    -26.126
     5.515    -45.632    -26.184
     5.506    -45.639    -26.143
     5.561    -45.692    -26.195
     5.694    -45.809    -26.314
     5.643    -45.812    -26.219
     5.683    -45.863    -26.224
     5.683     -45.82    -26.271
     5.666    -45.829    -26.226
     5.796    -45.961    -26.326
     5.788    -45.916    -26.367
      5.78    -45.926    -26.322
     5.741    -45.964    -26.215
     5.738    -45.912    -26.268
     5.723    -45.924    -26.224
      5.78    -45.973    -26.271
      5.76    -45.978     -26.23
      5.76    -45.933     -26.28
      5.74    -45.872    -26.321
     5.736    -45.824    -26.371
     5.719    -45.829    -26.325
      5.77    -45.872    -26.376
      5.76    -45.891    -26.326
     5.755    -45.845    -26.374
     5.722    -45.875    -26.278
     5.707     -45.89    -26.231
     5.705    -45.843    -26.286
     5.644    -45.907    -26.108
     5.689    -45.967    -26.119
     5.688    -45.918    -26.172
     5.667    -45.926    -26.125
     5.636    -45.972    -26.021
     5.633    -45.923    -26.071
     5.615    -45.929    -26.032
     5.671    -45.979    -26.075
     5.655    -45.985    -26.041
     5.656    -45.942    -26.086
     5.645    -45.874    -26.158
     5.632    -45.872    -26.121
      5.63    -45.825    -26.173
     5.613    -45.835    -26.132
     5.665    -45.876    -26.175
     5.652    -45.879    -26.148
     5.652    -45.842     -26.19
     5.615    -45.882     -26.08
     5.601    -45.849    -26.099
     5.725    -45.978    -26.172
     5.711    -45.987    -26.133
     5.712     -45.94    -26.184
     5.754    -45.999     -26.19
     5.641    -45.717    -26.317
     5.689     -45.76    -26.361
     5.679     -45.77    -26.321
     5.678    -45.723    -26.378
     5.663    -45.729    -26.336
     5.642    -45.764    -26.264
     5.628    -45.775    -26.223
     5.626    -45.726    -26.277
     5.609    -45.738    -26.233
     5.663    -45.778    -26.283
     5.655    -45.794    -26.242
     5.638    -45.666    -26.369
     5.622    -45.675    -26.323
     5.617    -45.621    -26.379
     5.609    -45.637    -26.342
     5.659    -45.687    -26.381
      5.61    -45.688    -26.284
     5.713    -45.778    -26.379
     5.707     -45.79    -26.342
     5.608    -45.785    -26.177
     5.489    -45.918    -25.823
     5.494    -45.855    -25.909
     5.496     -45.81    -25.958
     5.484    -45.822    -25.924
     5.444    -45.862    -25.806
     5.442    -45.816    -25.863
      5.43    -45.824    -25.824
     5.484    -45.871    -25.869
     5.463    -45.874    -25.827
     5.466    -45.829    -25.882
     5.548    -45.901     -25.96
      5.54    -45.913    -25.917
     5.596    -45.967     -25.96
     5.579    -45.973     -25.92
      5.58    -45.926    -25.975
     5.562    -45.928    -25.939
     5.545    -45.963    -25.871
     5.523    -45.974    -25.826
     5.523    -45.926    -25.875
     5.506    -45.934    -25.839
     5.562    -45.988    -25.878
     5.534    -45.862    -25.969
     5.517    -45.874    -25.924
     5.517    -45.825    -25.977
      5.51    -45.844    -25.931
      5.56    -45.887    -25.984
     5.508    -45.883    -25.891
     5.447    -45.957    -25.709
     5.448    -45.908    -25.755
     5.433    -45.922    -25.723
     5.486     -45.97    -25.767
     5.466    -45.972    -25.726
     5.471    -45.929    -25.779
     5.456    -45.932    -25.748
     5.437    -45.973    -25.673
     5.415    -45.981    -25.627
     5.416    -45.933     -25.68
     5.406     -45.94    -25.647
     5.458    -45.994    -25.684
     5.429    -45.874    -25.769
     5.412     -45.88    -25.732
     5.415    -45.837    -25.784
     5.458    -45.896     -25.79
     5.402    -45.897    -25.697
     5.508    -45.984    -25.783
     5.441    -45.763    -25.911
     5.439    -45.711    -25.969
     5.424    -45.724    -25.924
     5.483    -45.776    -25.972
     5.463    -45.781    -25.931
     5.463    -45.739    -25.978
      5.43    -45.775    -25.875
     5.411    -45.789    -25.832
     5.407    -45.738    -25.882
     5.421    -45.671    -25.978
     5.405    -45.685     -25.94
      5.41    -45.632    -25.997
     5.452    -45.699    -25.999
     5.504    -45.789    -25.989
      5.62    -45.981    -25.982
     5.603    -45.992    -25.944
     5.606    -45.945    -25.993
     5.894    -46.209    -26.216
     5.989    -46.367    -26.211
     5.989    -46.321    -26.269
     5.975    -46.327    -26.228
     5.942    -46.213    -26.308
     5.997    -46.255    -26.356
     5.987    -46.273    -26.319
     5.989    -46.219    -26.376
     5.968    -46.229     -26.33
     5.947    -46.258    -26.267
     5.938    -46.268    -26.222
     5.933    -46.222    -26.272
     5.919    -46.231    -26.226
      5.97    -46.278    -26.277
     5.955    -46.282    -26.229
      5.96    -46.243    -26.292
     5.892    -46.318    -26.103
     5.842    -46.311    -26.016
      5.89    -46.377    -26.021
     5.887    -46.323    -26.072
     5.867    -46.329    -26.029
     5.844    -46.215    -26.109
     5.896    -46.264    -26.156
     5.883    -46.272    -26.124
     5.883     -46.22    -26.174
     5.864    -46.228     -26.13
     5.841     -46.26    -26.063
     5.824    -46.269    -26.021
     5.828    -46.226    -26.076
     5.812    -46.232    -26.039
     5.865    -46.281    -26.078
     5.852    -46.289    -26.048
     5.937    -46.363    -26.116
     5.938    -46.324    -26.164
      5.92    -46.328    -26.123
     5.978    -46.375    -26.174
     5.959    -46.383    -26.134
     5.958    -46.333    -26.183
     5.923    -46.377    -26.076
     5.911    -46.385    -26.038
     5.906    -46.336    -26.086
     5.919    -46.278    -26.177
      5.91    -46.294    -26.134
     5.906    -46.241    -26.193
     5.889    -46.122    -26.316
     5.841    -46.117    -26.222
     5.891    -46.159    -26.262
     5.879    -46.176    -26.223
     5.878    -46.122    -26.278
     5.863    -46.131    -26.235
     5.839     -46.01    -26.363
     5.834    -46.021    -26.319
     5.885    -46.067    -26.367
      5.87    -46.073    -26.326
     5.866    -46.026    -26.378
     5.857    -46.045     -26.34
     5.838    -46.065    -26.269
     5.819    -46.078    -26.224
     5.816    -46.026    -26.276
     5.808    -46.041    -26.244
     5.857    -46.083    -26.283
     5.944    -46.165     -26.36
     5.928     -46.17    -26.326
     5.924    -46.122    -26.374
     5.909    -46.127    -26.336
     5.966    -46.179    -26.379
      5.96      -46.2    -26.345
     5.951    -46.147    -26.393
      5.91    -46.176    -26.278
     5.908    -46.188    -26.249
     5.906    -46.148    -26.288
     5.907    -46.083    -26.388
     5.844    -46.168    -26.169
     5.825    -46.177    -26.125
     5.823    -46.126    -26.174
     5.809    -46.135    -26.134
      5.86    -46.182    -26.178
     5.813     -46.19    -26.086
     5.805    -46.083    -26.191
     6.032    -46.365    -26.386
     6.042    -46.361     -26.32
     6.035    -46.318    -26.374
     6.024    -46.325    -26.323
     6.067    -46.372    -26.365
     6.065     -46.38    -26.332
     6.056    -46.346     -26.36
     6.025    -46.374    -26.275
      6.01    -46.387    -26.229
     6.007    -46.327    -26.285
     6.023    -46.278    -26.373
     6.008    -46.288    -26.333
     6.012     -46.24    -26.387
     5.847    -46.355    -25.968
     5.834    -46.377    -25.922
      5.83     -46.32    -25.975
     5.812    -46.333    -25.929
     5.867    -46.379    -25.975
     5.855    -46.391    -25.941
     5.857    -46.343     -25.99
     5.811    -46.382    -25.879
     5.805    -46.396    -25.844
     5.806    -46.349    -25.892
      5.81     -46.28    -25.985
     5.834    -45.977    -26.378
     5.811    -45.975    -26.329
     5.811    -45.938    -26.375
     5.804    -45.937    -26.346
     5.801    -45.984    -26.298
     5.428    -45.578    -26.727
     5.427    -45.527    -26.728
     5.469    -45.568    -26.708
     5.457    -45.544    -26.713
     5.487    -45.575    -26.694
     5.498    -45.538     -26.69
     5.426    -45.487    -26.726
     5.425    -45.439    -26.726
     5.464    -45.484    -26.705
     5.467    -45.429    -26.705
     5.485    -45.469    -26.697
     5.491    -45.426    -26.693
     5.522    -45.588    -26.682
     5.527    -45.534    -26.673
     5.555    -45.571    -26.661
     5.585    -45.586    -26.643
     5.559    -45.535    -26.654
     5.587    -45.525    -26.638
     5.523    -45.475    -26.672
     5.519    -45.442    -26.673
     5.556    -45.484    -26.659
     5.578    -45.493    -26.644
     5.555    -45.433    -26.655
     5.585    -45.432    -26.636
     5.597     -45.56    -26.408
     5.589    -45.508    -26.474
     5.583    -45.524    -26.425
     5.549    -45.402    -26.507
     5.585     -45.46    -26.519
     5.588    -45.426    -26.564
     5.567    -45.424    -26.528
     5.539    -45.467    -26.416
     5.539    -45.421    -26.471
     5.521    -45.427    -26.423
     5.573    -45.474    -26.475
     5.564    -45.485    -26.434
     5.557    -45.435     -26.48
     5.426    -45.377    -26.724
     5.432    -45.308    -26.722
     5.458    -45.388    -26.704
     5.473    -45.333    -26.702
     5.481    -45.375    -26.694
     5.489    -45.313    -26.689
     5.416    -45.282    -26.732
     5.428     -45.24    -26.723
     5.465    -45.296    -26.704
     5.462    -45.223    -26.707
     5.483     -45.25    -26.693
     5.485    -45.223    -26.692
     5.491    -45.214    -26.622
     5.521    -45.372    -26.674
     5.525    -45.314     -26.67
     5.544    -45.311    -26.608
     5.555    -45.379    -26.655
     5.579     -45.37    -26.623
     5.556    -45.304    -26.656
     5.565    -45.331    -26.628
     5.521    -45.266    -26.669
     5.529    -45.277    -26.626
     5.514    -45.221    -26.665
     5.508    -45.234     -26.63
     5.551    -45.292    -26.645
     5.495    -45.318    -26.524
     5.439    -45.308    -26.413
     5.493    -45.355    -26.456
      5.49    -45.379    -26.422
     5.479    -45.322    -26.473
     5.467    -45.335    -26.429
     5.443     -45.21    -26.563
     5.436    -45.212    -26.517
     5.486    -45.263    -26.564
     5.476    -45.274    -26.529
     5.472    -45.227    -26.575
     5.457    -45.232    -26.524
     5.437    -45.262     -26.46
     5.422    -45.273    -26.424
     5.422    -45.224    -26.477
     5.412    -45.238    -26.442
     5.464    -45.282    -26.485
     5.453     -45.25    -26.496
     5.532    -45.359    -26.558
     5.534    -45.381    -26.522
     5.528    -45.324    -26.571
     5.511    -45.332    -26.522
      5.57     -45.38    -26.573
     5.555    -45.391    -26.531
     5.558    -45.344    -26.593
     5.518    -45.371    -26.476
      5.51    -45.392    -26.437
     5.505    -45.349    -26.481
      5.51    -45.278    -26.586
     5.503    -45.298    -26.542
     5.502     -45.25    -26.591
     5.634    -45.557    -26.613
     5.622    -45.527    -26.618
     5.625    -45.476    -26.613
     5.608    -45.421    -26.613
     5.645    -45.569    -26.511
     5.639    -45.514    -26.565
     5.632    -45.522    -26.526
     5.679    -45.573    -26.574
     5.671     -45.58    -26.531
     5.665    -45.528    -26.574
     5.655     -45.55     -26.54
     5.633    -45.577    -26.473
     5.618    -45.578    -26.431
     5.612    -45.532     -26.48
     5.604    -45.539    -26.447
     5.657    -45.593     -26.49
     5.632    -45.477    -26.577
      5.61    -45.482    -26.533
     5.612    -45.433    -26.585
     5.653    -45.495    -26.587
     5.428    -45.182    -26.723
     5.426    -45.121    -26.723
     5.459    -45.182    -26.706
     5.454    -45.114    -26.702
     5.449    -45.165    -26.617
     5.448    -45.114    -26.672
     5.436     -45.13    -26.622
     5.484     -45.18    -26.672
      5.47    -45.179    -26.623
     5.466    -45.131    -26.675
     5.451    -45.127    -26.649
     5.425    -45.068    -26.719
      5.41    -45.022    -26.716
      5.43    -45.074    -26.673
     5.413    -45.082    -26.632
     5.411    -45.033    -26.683
     5.453    -45.097    -26.696
     5.434    -45.172    -26.573
     5.418    -45.174    -26.527
     5.409    -45.126    -26.574
     5.408    -45.143     -26.54
     5.456    -45.182    -26.595
     5.402    -45.181    -26.489
     5.447    -45.501    -26.216
     5.487    -45.564    -26.216
     5.492    -45.526    -26.267
     5.473    -45.528    -26.226
     5.446    -45.404    -26.318
      5.49    -45.471    -26.318
     5.488    -45.423     -26.37
     5.467     -45.43    -26.327
     5.446    -45.453    -26.257
     5.433     -45.47    -26.222
     5.431    -45.423    -26.273
     5.414    -45.434    -26.231
     5.469    -45.477    -26.276
     5.455    -45.491    -26.236
     5.457    -45.443     -26.29
     5.546    -45.562    -26.313
     5.546    -45.515     -26.37
      5.53    -45.528    -26.325
     5.582    -45.574    -26.372
     5.567    -45.579    -26.334
     5.563    -45.535    -26.382
     5.531    -45.575    -26.275
     5.509    -45.576    -26.237
      5.51    -45.535    -26.287
     5.522    -45.475    -26.373
     5.509     -45.49    -26.331
     5.507    -45.437    -26.384
     5.446    -45.552    -26.152
     5.437    -45.565    -26.121
     5.434    -45.519    -26.171
     5.416    -45.529    -26.125
     5.472    -45.573    -26.174
      5.46    -45.591    -26.132
     5.459    -45.542    -26.186
     5.421    -45.582    -26.077
     5.405    -45.592    -26.037
     5.403    -45.546    -26.086
     5.411    -45.475    -26.181
     5.405    -45.494     -26.14
     5.409    -45.447    -26.199
     5.444    -45.352     -26.37
     5.434    -45.374    -26.328
     5.425    -45.323     -26.37
      5.41    -45.334    -26.326
     5.465    -45.383    -26.376
     5.456    -45.395    -26.342
     5.454    -45.347    -26.389
      5.41    -45.373    -26.287
     5.402    -45.398    -26.242
     5.406    -45.286    -26.383
     5.601    -45.592     -26.39
     3.394     -47.71    -24.547
      3.35    -47.611    -24.562
     3.386    -47.667    -24.564
     3.391    -47.687     -24.54
     3.373    -47.625    -24.579
     3.176    -47.212    -24.705
     3.191    -47.269    -24.672
     3.174    -47.222    -24.689
     3.299    -47.505    -24.608
     3.289    -47.467    -24.619
     3.272     -47.42    -24.635
      3.34    -47.553    -24.607
     3.329    -47.525     -24.61
     3.363     -47.57    -24.602
     3.358     -47.54    -24.606
     3.317     -47.47    -24.626
     3.302     -47.42    -24.635
     3.351    -47.499    -24.608
     3.286     -47.47    -24.588
      3.34    -47.572    -24.588
